# .PCD v0.7 - Point Cloud Data file format
VERSION 0.7
FIELDS x y z
SIZE 4 4 4
TYPE F F F
COUNT 1 1 1
WIDTH 1433
HEIGHT 1
VIEWPOINT 0 0 0 1 0 0 0
POINTS 1433
DATA ascii
0.89861524 -0.54128051 -0.0031633293
1.1152613 -0.20556672 -0.027236929
2.351701 -0.49254712 0.50453639
2.5099075 1.6525581 1.3259386
2.3606656 -0.86415428 1.0333633
2.4041786 -0.82936168 1.2194439
0.43075085 0.3275604 -0.0055405628
2.3588514 -0.70779008 1.1427877
2.2798934 -0.50358546 0.59843862
1.6161677 -1.1987078 0.66461402
2.4240503 -1.0288817 0.28454649
0.74689335 -0.0029674026 -0.011261127
2.363307 -0.89830297 0.66942328
1.0684681 0.1635254 -0.02280754
2.3556361 -0.52368462 1.1808995
0.71808493 -0.042597234 -0.0096068913
2.3895009 -0.92657584 0.85782975
2.5312636 -1.058434 1.2369959
2.4536078 -1.1396043 1.0624365
0.35269663 0.058000963 0.0013316158
2.3232584 -0.66001081 0.42052549
2.3446832 -0.54442233 1.1772887
2.3296444 -0.66031057 0.027209977
0.47029996 0.13617529 -0.0049434663
2.3338747 -0.80044931 0.76922607
1.4104693 -0.86888433 0.71736455
2.3064766 -0.49257466 0.68737835
1.3548063 -0.73011255 0.49185964
0.35219026 0.30729005 0.000553775
1.0925311 0.69953513 0.27558562
2.287674 -0.50643253 0.62071162
0.70962894 -0.44378397 -0.0059332666
0.37075782 0.25905761 -0.001856157
0.55549264 -0.28437141 -0.0038847777
2.5157568 1.3563625 1.0246941
0.88420802 -0.54433292 -0.00063001632
0.48659602 -0.41170844 0.0093058776
2.3435829 -0.75677085 0.99686784
0.40380421 0.25084671 -0.0037242868
0.93578607 0.79547387 0.12523474
1.013342 0.68775451 0.28184736
0.62187016 -0.25453952 -0.0043962244
2.3468375 -0.74701613 0.90479422
2.37341 -0.80043226 1.0812536
0.8004275 0.35299367 -0.019690709
2.349221 -0.71346897 1.0196514
1.369747 -1.0207238 0.50653863
0.33517614 0.34721294 -0.0018895821
2.3315477 -0.59151763 1.0075988
0.39173588 -0.30224851 0.0032066067
0.37668478 0.2920047 -0.00069216441
1.8393117 -1.0989999 0.53531796
1.1593555 -0.82212365 0.66505873
0.46393442 -0.10524409 -0.0028665867
1.4015921 -0.91563648 0.69091815
2.4722955 -1.038548 1.2395266
0.45475146 0.5291689 -0.0052333567
2.5170932 1.3584046 1.0526605
0.78530353 -0.017192189 -0.014023437
0.46055052 0.067410856 -0.0028147788
2.4394672 -1.1584744 0.60499167
2.3055 -0.56736088 0.43781027
2.3145485 -0.57480979 1.0945116
2.5355318 -1.2498181 1.3155031
0.53060454 -0.45320347 0.010358522
0.28849289 0.53628194 -0.0018752265
2.4426913 -1.0867699 1.1043469
0.56798822 0.29464698 -0.010242063
0.57944238 -0.33066118 -0.0030084949
2.4376276 -1.2284821 0.74907464
0.39063957 -0.055173151 -0.00079561013
0.37702081 0.045433361 0.0024429108
2.3431025 -0.82375908 0.15240335
1.3219959 -0.74445683 0.2840175
2.32184 -0.67841482 0.17245482
0.94809914 0.69907838 0.053942867
2.505044 1.4162301 1.1404153
0.34648481 0.076255582 0.0027483206
2.4742393 -1.2756265 0.40665823
2.3106611 -0.48403555 0.86158967
2.306253 -0.59030461 0.81959981
2.315809 -0.48694971 0.8853482
0.35520014 -0.25121647 -0.0013699007
0.34820417 0.39689252 -0.002224606
2.454401 -1.2043871 0.26654798
2.3748608 -0.8308683 0.69067848
2.4194043 -0.75812709 1.2200708
0.41862383 0.087795079 -0.0017982015
1.1234984 -0.38043165 -0.020485668
0.40188357 0.60640508 -0.0064279605
0.61118191 0.89560038 -0.010639869
0.62222189 0.24595523 -0.0088360682
2.300142 -0.56128407 0.75193441
1.1764627 0.69558591 0.21978605
0.72671121 0.995713 -0.0093558291
0.24901572 0.42522582 0.0035432391
0.63136446 -0.31875193 -0.0045360331
0.53984445 -0.43454364 0.0039733886
2.4002166 -0.97825885 0.5459156
0.41590413 -0.12200347 -0.0013328166
0.40716457 0.525029 -0.0052440688
1.6192969 -1.077997 0.50272709
0.93031526 0.79414624 0.062357191
0.35626328 -0.24226046 0.0039268825
1.2504109 -0.88286948 0.68763822
0.36065182 -0.023926064 0.00037544576
2.5733237 -1.3649364 1.3452948
0.31343135 0.093744367 0.0064327628
2.4049697 -1.0526778 0.46066934
0.53156132 -0.10471249 -0.0038260536
2.4314897 -0.86070323 1.2071574
0.44147688 0.21889174 -0.0033928202
2.4216182 -1.0713215 0.87605643
1.2697999 -0.86194646 0.70418602
0.53909117 0.4041861 -0.0087735858
1.4206316 -1.0256305 0.4423365
2.4608352 1.815081 1.2507534
2.3354998 -0.65555006 0.69790173
2.3330297 -0.67055058 0.59042543
2.3749173 -0.8045513 0.91602933
1.6680237 -1.1757286 0.74344462
2.4520438 -1.2496428 0.61191577
2.3316724 -0.50731772 0.41878971
2.4628084 -1.239085 0.3587549
1.3014657 -1.0115298 0.49502656
2.3518088 -0.75086033 1.1185682
0.25890198 0.44888374 0.001556998
2.463506 1.306082 1.1395547
1.1669163 -0.68619186 0.68565112
1.1920792 0.10609989 -0.034545299
0.50894213 -0.41999948 0.007902923
2.3313093 -0.64738542 0.58949596
1.2595375 -0.78236049 0.6893279
0.70749336 -0.53339159 0.002597247
0.64486063 0.044070713 -0.0095895715
2.4496419 -1.1053158 1.0328237
2.3932469 -1.0691887 0.35013106
2.3574235 -0.54089904 0.89913821
1.1802063 -0.85525751 0.67646998
0.80536902 0.24677986 -0.021878686
0.80320925 -0.12060127 -0.010426145
2.3724475 -0.87243289 0.87313932
0.92927009 0.87848085 0.16789295
0.45172229 0.38980505 -0.0057332222
0.98547965 0.69625241 0.13408396
0.7193585 -0.036068078 -0.010047822
1.1912669 0.71870756 0.29358143
2.4272645 -1.1079434 0.92842412
2.3388119 -0.69927782 0.65672803
0.5680747 -0.31802475 -0.0045850556
0.52768159 -0.31148037 -0.0031274757
2.2972531 -0.62546563 1.16205
1.6541584 -1.2010503 0.67263299
2.4505827 -1.2383492 0.47236079
0.42783037 0.40262288 -0.0063711549
2.551368 1.3956486 0.79474133
0.46846253 0.32807809 -0.0070635071
0.48281559 -0.32824963 -0.0015437176
0.93707895 0.82413566 0.17806697
1.3378377 -0.7449218 0.54293388
1.3201518 -0.74598712 0.3339988
1.3354094 -1.0466367 0.42018449
2.4528468 -1.1241676 1.1371022
0.7440533 -0.10563713 -0.0095098894
2.4713681 -1.147568 1.2246318
2.2940242 -0.51838493 0.070292585
2.3539345 -0.75704557 0.15172321
2.4386537 -1.0765613 1.051751
2.4344409 -1.0707296 1.0250701
0.7854141 0.16432099 -0.012464019
2.3042245 -0.59917247 0.64708185
1.3921423 -0.78959799 0.64347219
0.54553622 -0.25433528 -0.0041808421
1.1641806 -0.85831499 0.65907049
2.3875821 -0.81220365 1.136232
0.53406745 -0.12606853 -0.0051350626
2.4601424 -0.90159833 1.2479067
2.3431189 -0.8081184 0.51072633
2.3673081 -1.2238905 0.94730306
2.4960694 -0.9502157 0.95959359
2.3224483 -0.61516988 0.80269516
0.33470482 0.40843388 -0.00058992318
2.3935905 -0.96475148 0.15250729
2.4095068 -1.1545769 0.22029404
0.57666999 -0.074091449 -0.0087074675
2.4386122 -1.1211267 0.46644393
2.3488724 -0.52939636 1.0344576
2.2977414 -0.52795607 1.1096642
0.580998 0.058222543 -0.0075717703
2.3376253 -0.74863195 0.70176834
1.3422701 -0.73260289 0.55616087
0.27169895 0.28721845 0.00096579641
2.5453906 1.3932744 0.8200382
2.3764157 -0.84056932 0.45108116
2.3293262 -0.54381973 1.1954212
2.3771753 -1.1788393 0.80340022
2.5127935 1.5491078 1.2203568
2.2692869 -0.52158445 0.57632089
0.63404799 0.1145789 -0.0094360011
0.34135714 0.068154089 0.0022798728
1.3116565 -0.73726994 0.15989347
2.3472595 -0.5801751 1.0832193
1.3037095 -1.0157934 0.50955641
0.36995822 0.42295602 -0.0038522955
2.2917242 -0.55076158 0.62243223
2.3373253 -0.68668807 0.42236641
2.5359526 -1.2812945 1.3198023
2.3367264 -0.49772778 0.67232877
2.3373547 -0.50666308 0.047252398
0.93287295 0.88529509 0.09125822
2.44524 -0.88775927 1.1889968
0.50909638 -0.19421493 -0.0040523871
0.49990538 0.52329981 -0.0088431295
0.38321599 0.28849053 -0.0024560138
2.3420541 -0.89962858 0.42808855
1.2994777 -1.0011326 0.43949422
0.45704317 -0.081691973 -0.0043245503
0.45161343 0.54601526 -0.007259388
1.6098479 -1.0897433 0.61714256
1.1567262 -0.69923031 0.69704264
1.0700995 0.68670851 0.12973157
1.3315331 -0.74905753 0.4760986
2.392895 -0.86937052 0.99621552
0.59559089 -0.47430536 0.004778774
2.329422 -0.62685442 0.63125014
1.6387777 -1.2233 0.70734358
2.3298194 -0.65816462 0.1929035
2.3551083 -0.76058739 0.40443072
2.4664915 -1.261583 0.66179049
2.393703 -0.6766659 0.27796319
0.57723796 0.3299917 -0.010543969
0.98994702 0.68483585 0.28038213
2.3689041 -0.59724015 1.1897179
0.93530464 0.61963743 -0.021356991
0.71965623 -0.23443016 -0.0048651993
0.92961419 0.88441467 0.058612112
2.3995147 -1.2381932 0.42264444
0.26213971 0.35737878 0.0023208186
1.130313 0.21500847 -0.02596649
1.0156766 0.6790539 0.089960873
2.5701287 1.6860006 0.74400163
1.0664374 0.68407589 0.14101048
2.3251262 -0.50925773 0.86638743
0.97412628 -0.19884107 -0.017515477
2.4272993 -1.1431056 0.46623409
2.2995279 -0.4980565 0.31361338
2.3272812 -0.64530891 0.87177497
1.1058704 -0.081893116 -0.025597185
0.55721825 -0.27518836 -0.0037458357
2.4221599 -1.0311986 1.1426394
0.31885964 0.1762547 0.0029990759
0.92515916 0.85150743 0.027931791
0.57714391 0.085000277 -0.0076009622
0.93054873 0.70319384 -0.0059436299
2.4017105 -0.83519876 1.0936662
1.0591257 0.12304631 -0.029675519
1.0335048 0.86074191 0.18776228
1.2005541 -0.75232607 0.69344133
2.333621 -0.70650142 0.35970008
1.4029185 -1.056372 0.44270664
0.42853498 -0.094528593 -0.0014704096
0.41818416 0.62882805 -0.0073839086
2.365541 -0.93244737 0.40961859
2.3160222 -0.56616998 0.13077046
1.3040396 -1.0258861 0.44220489
2.4635751 -1.1579612 1.1443245
0.32110682 0.40926847 -0.0016688587
1.3161789 -0.7159512 0.39481518
2.3407142 -0.78486478 0.53103656
0.37086287 0.13581997 0.00013459315
2.5586126 1.4794716 1.1944103
0.34693208 -0.04375628 0.0052235345
2.4354544 -1.0138322 1.1712003
0.93733817 0.76036209 0.02085658
0.8344534 -0.063346185 -0.010714644
1.3098145 -0.77442235 0.68961251
2.5112488 -1.0887228 1.2867562
2.4244695 -1.2282443 0.98774195
0.65166897 -0.22773685 -0.0056928121
1.3351958 -0.74146998 0.52876323
0.91616416 0.91374296 0.1793818
1.3541559 -0.75884825 0.67242247
0.92348361 0.85957789 0.11430033
2.4721465 -1.1913222 1.1508704
0.34645569 0.23175988 -0.00042959242
2.3412499 -0.80738878 0.81593043
0.33982015 0.026198531 0.0037662687
2.5461791 1.6401535 1.3054914
2.3997848 -1.0207163 0.37111473
1.1422164 0.70299375 0.27823344
0.92307776 0.88515288 -0.018116733
0.98171949 0.69200194 0.25935596
2.332469 -0.63047355 0.67486328
2.4261174 -1.094123 0.55431384
0.95070046 0.6926651 -0.018974135
0.71902579 -0.33457896 -0.0086965617
1.184579 -0.77625781 0.69196057
2.6038291 1.2628121 1.2344278
0.62955946 0.74660897 -0.013748992
2.3849227 -0.61448902 0.88676262
2.4498348 -1.1442996 0.69860274
2.4402673 -1.1146963 0.71835768
0.68296355 0.38824788 -0.017508661
1.3241391 -1.0343822 0.39069018
1.4204141 -0.38027617 -0.036182642
2.3568981 -0.8406229 0.57829565
2.3279386 -0.72603303 0.27648082
0.45699736 0.19537015 -0.0062525026
0.5621959 0.79664952 -0.016313219
0.44838059 0.83041686 -0.0097041922
2.4309912 -0.97118831 1.2430055
2.4160705 -1.0899105 0.82876384
1.5770075 -1.1661237 0.63597172
0.92021579 0.90119046 0.19005746
1.1018112 0.69429737 0.093782887
2.4007602 -0.84390438 0.97305435
2.3942099 -1.1217397 0.087954797
1.3187464 -1.0578557 0.55884272
0.37769067 -0.28202236 0.0023635253
0.42593855 -0.01545089 -0.00030708651
2.3861878 -0.91297829 0.08770334
2.3068004 -0.52550864 0.8396191
2.3621421 -0.88483679 0.47246024
1.4522401 -1.0595676 0.52327091
0.97034341 0.73767549 0.17660411
0.4687188 0.88329256 -0.0043474315
0.48302186 0.23276784 -0.0045817066
2.3548529 -0.89988446 0.1739614
2.4692254 -1.1175604 1.2204418
2.4452031 -1.1123028 0.6725986
1.7153393 -1.1329632 0.7493493
2.3596678 -0.88017905 0.024936777
1.5817195 -1.0802653 0.52971756
1.8193691 -1.0865643 0.69471073
0.78756964 0.70621479 -0.02092704
0.59471816 0.11883505 -0.009509935
0.39199254 0.26986957 -0.0024262518
2.5243306 1.7227447 0.76795959
0.67199063 -0.025021678 -0.0097269071
0.94274914 0.73280364 0.094667703
0.53508991 0.12782015 -0.0071515101
1.2796125 -0.89970517 0.68442923
2.3427274 -0.66849631 0.83215165
1.064829 0.69527322 0.21856201
2.2985473 -0.6284349 0.070317924
1.2945983 -0.85598379 0.69646901
2.3909209 -1.1214876 0.044147279
0.63594037 -0.15263066 -0.0051481463
2.4103041 -1.0745828 0.1970803
2.3613145 -0.73709798 0.31986186
0.27409434 0.23759471 0.0049845478
2.4306068 -1.1271405 0.85871267
2.349649 -0.66031855 1.1607832
2.2369869 -0.50615704 0.35017484
2.4103603 -1.0968021 0.89905703
2.4382935 -1.1974511 0.72341841
0.95259792 0.69114774 0.022665113
2.4996536 1.3785884 1.0505888
2.3020353 -0.51338375 0.68690813
0.7424224 -0.43338719 -0.0054926486
2.3685708 -0.68019003 1.0961051
0.38521138 -0.26047522 0.0026333854
2.4310319 -0.78718859 1.2268773
1.0687075 0.69777411 0.27432227
2.2969785 -0.49824694 0.35416928
0.57895333 -0.1635588 -0.0050916444
2.3240423 -0.59214371 1.0282977
2.3974144 -0.95635962 0.61128974
0.52274197 -0.25699824 -0.0023759929
1.3276205 -0.73567671 0.7042129
0.92591453 0.79616618 -0.011822462
1.3274283 -0.71562046 0.097194925
2.330507 -0.6769821 0.69759971
2.526104 1.4354044 1.2640575
0.92372602 0.90552473 0.15724334
0.98003727 0.90944475 0.18922912
1.0607562 0.69270474 0.20742968
1.2348543 -0.88724953 0.67004794
0.85980946 0.97174823 -0.015674453
0.866292 0.37197882 -0.018777372
2.4239228 -0.92059654 1.1080582
1.5019742 -1.0657939 0.48566914
2.272568 -0.58158994 1.0327431
2.3986068 -0.96235478 0.67905754
2.519428 1.4669224 0.76917309
2.5272853 1.592676 1.2614059
0.9487713 0.69599479 0.13600501
2.0736983 1.1800127 0.57806969
1.1041285 0.42579833 -0.018953511
1.3278666 -0.77058136 0.70884329
2.4019871 -1.0316556 1.1864235
2.4684403 -1.1846488 1.1229284
0.53940094 0.55692905 -0.0094308536
0.85544688 0.13071866 -0.020382196
2.4271557 -1.0609373 1.1473669
0.34587365 0.58746248 -0.0030226139
0.40301514 -0.30602294 0.003269203
2.447696 -1.2084895 0.47082043
2.3309193 -0.64019948 0.80576116
0.63837767 0.076256692 -0.0088699246
2.3186715 -0.74619627 0.74127203
2.4211094 -1.1795131 0.62645841
1.1751873 -0.67530179 0.68688744
1.1740206 -0.69360852 0.70217067
2.3642344 -0.70295894 1.0958469
2.3859458 -0.88012999 0.90044504
2.3564446 -0.52678245 1.2060733
2.4202409 -1.038415 0.55105704
2.2666464 -0.61746156 0.96427846
2.3361437 -0.62388736 0.54719412
2.3653691 -0.75864762 1.1486967
1.5701841 -1.0930835 0.51314843
0.93711281 0.78694719 0.040687442
0.32278123 0.53065455 -0.0032248029
2.4863853 -1.0117298 1.2156844
0.90697002 -0.50114435 -0.011699359
0.90360522 0.15499407 -0.015783817
0.94010234 0.7693013 0.16709869
2.5298927 1.7656628 1.3230755
2.4538031 -1.1598765 1.0142163
0.72189796 0.17885613 -0.011500319
2.3845205 -0.90944964 1.1181448
2.3455222 -0.68321925 0.97011328
0.93766546 0.79628503 0.1462114
0.63835341 -0.43335262 -0.001929788
2.4266119 -0.71836346 1.0947984
0.74070388 -0.54520839 0.0024803921
0.51382482 -0.16603051 -0.0043566106
2.3206866 -0.51626635 0.95523465
2.4568019 -1.159771 0.51541543
2.4301176 -1.1128154 0.041763168
0.519023 0.16833706 -0.0048902063
1.7000877 -1.0021076 0.71249402
2.3311534 -0.65087593 0.91826814
1.1969374 -0.69757462 0.67122507
0.44853166 -0.14353016 -0.0026716013
2.4458616 -1.160301 1.036958
1.2021601 -0.67190093 0.68247783
2.4003706 -0.92912626 0.56612188
2.3466716 -0.71851605 0.85788077
1.0279934 0.50779474 -0.030946283
1.184952 -0.67784196 0.67757905
2.4517019 -1.225142 0.65714836
0.62828302 -0.52458864 0.026556188
0.76691526 -0.072976358 -0.0085686613
0.4004133 0.20910944 -0.00065476977
1.3303585 -1.0100979 0.48546895
1.2210459 0.71158767 0.034361869
2.5579915 1.3984249 0.769575
2.4544227 -1.0891923 0.6728574
1.4535792 -0.87211806 0.71482229
0.92906827 0.84648037 0.21052851
2.0853803 1.1861309 0.55865496
2.3080971 -0.56498772 1.2119918
2.4546795 -1.1899742 0.56259465
0.49377763 0.25769129 -0.0058586891
2.3473675 -0.80300707 0.75023627
1.0819809 0.69317973 0.18509798
0.35300869 0.62554568 -0.0059837322
1.0905362 0.686185 0.12866263
0.95493269 0.91854495 0.18975312
0.66503406 -0.45487106 -0.0033377954
0.65675682 0.22174764 -0.010186931
2.3232977 -0.53115016 1.0959544
2.4988711 1.3653283 0.73020881
2.4218607 -1.2268133 0.51467907
2.3449712 -0.69824624 0.61466908
1.1154754 0.68947166 0.081308246
0.28130662 0.24780282 0.0031559397
2.4374189 -1.0958622 1.0035027
1.3988825 -0.91742331 0.70553309
0.68128663 0.20576844 -0.009131927
0.57623529 0.11514538 -0.009077007
2.4141214 -1.0309081 0.99099904
2.3167675 -0.67704952 0.15190709
0.30298606 0.12944622 0.0064841714
1.2255626 -0.27077419 -0.026766866
2.2984703 -0.55929399 0.72999948
1.3245085 -0.72908759 0.27116182
0.78911614 -0.0098083038 -0.0077281655
0.69418645 0.0031187041 -0.01029091
2.3104675 -0.61071956 0.37715599
1.8236845 -1.1135145 0.69839227
2.3553977 -0.49506649 0.54742938
2.4000988 -1.0190004 0.72786516
2.2970552 -0.52594948 0.53938043
1.205443 -0.67677289 0.69739801
0.93037575 0.78369921 0.0097804619
1.2074586 0.71773279 0.048068032
2.5050259 1.4898076 1.3246536
2.3399789 -0.72276276 0.6577673
2.3102021 -0.58917946 0.39739084
1.2827805 -0.72494173 0.063795634
2.3480895 -0.65359831 1.1111672
2.4754512 -0.97537971 1.1820623
2.3593402 -0.84556699 0.8909995
1.0119662 0.68858409 0.12210115
0.41207308 -0.19328946 -0.00024508208
2.3023179 -0.5100916 0.92663389
1.3162398 -0.74302548 0.32104671
2.4046822 -1.250005 0.55947888
0.99754477 1.1435053 -0.011367529
2.5271387 1.4577562 1.1247588
2.4026248 -0.76041132 1.0888629
2.6214588 -0.45274538 0.56266761
2.3593473 -0.86878157 0.62338471
2.3009517 -0.54859459 0.54039371
0.48389545 0.24723829 -0.0066696028
0.93731052 0.78205091 0.1358176
2.3910203 -1.1466366 0.11017427
0.61236882 0.38722309 -0.013354115
1.6517417 -1.309425 0.70334291
0.59153754 -0.083941214 -0.0080640391
0.33431968 -0.021384973 0.0040732198
2.3183515 -0.50121111 0.21222761
2.3846042 -0.87176108 0.83021116
1.3220952 -0.74979264 0.7042945
0.94455343 0.74612963 0.13577245
2.3568029 -0.94661665 1.0871068
0.34298146 -0.06433744 0.0031836804
2.3997264 -1.0796551 0.80090767
2.4540625 -1.2273008 0.89688402
0.63003165 -0.2143596 -0.0050802394
1.6848247 -1.3121164 0.72890151
0.40026137 -0.13288544 0.00073603768
2.4362192 -1.0437834 0.53078276
2.3498917 -0.6869148 0.13044682
0.62369561 0.76828229 -0.01528408
1.5934649 -1.1724219 0.72533101
1.3070792 -0.70734936 0.049457151
2.3545146 -0.79015309 0.84091955
0.38836572 0.47981009 -0.0036929254
0.48978147 0.07653597 -0.0026808416
2.4262004 -1.0897939 0.48650843
0.37110513 0.11803979 0.00019705115
2.2514663 -0.49495518 0.86668473
1.4231857 -1.0736816 0.46112853
2.399452 -0.99035817 1.105721
0.94357699 0.73254734 0.11530097
2.4050074 -1.046864 0.94142663
2.5170667 1.3022153 1.1001583
2.4167202 -0.77714127 0.23689304
0.94061071 0.73540205 0.021843376
2.4373631 -1.0888376 1.1282088
2.4244549 -1.1894401 0.24327013
2.4351621 -1.1207882 1.1564475
0.47045088 0.79097235 0.00034744441
0.6020624 0.0045792805 -0.0068555078
1.3179294 -0.7164402 0.71283537
2.3109367 -0.53872859 0.71078354
2.3238842 -0.69283146 0.89544463
1.229039 -0.74965012 0.68876821
2.4308622 -0.90260667 0.96197838
1.2303956 -0.47920194 -0.03053125
1.7278317 -1.1336075 0.71612239
0.8416326 -0.11030687 -0.012239858
2.3220422 -0.59890288 0.56561083
2.3735597 -0.76356554 0.98336542
0.39105788 -0.051395748 -0.00099169218
2.392962 -0.89992505 0.83391649
0.64410615 0.26462173 -0.010050914
1.2063497 -0.75258261 0.68202102
0.33600891 0.27375779 -0.00015334779
2.3562052 -0.87786907 0.34342813
2.3332036 -0.66824359 0.54787958
0.65486777 0.13710962 -0.010601589
0.40868759 0.05553294 -0.00036413854
0.48042172 -0.2333267 -0.0015728977
0.93371642 0.78037274 0.10462648
8.6374569 1.5598521 -0.20193395
2.4077787 -1.1537997 0.17601337
1.4483838 -1.0345937 0.52024221
2.3959177 -1.0196009 0.749937
2.4420629 -1.2315276 0.42562985
0.64701056 0.16683136 -0.010102932
2.4122803 1.8103914 0.75934148
0.68169618 0.36721069 -0.01520972
0.31976393 0.090514913 0.0033930747
2.3245609 -0.56937039 1.027499
2.499902 1.7392106 0.76572794
2.4202847 -1.0606995 0.99536616
0.3868027 0.19579986 -0.0023194952
1.3198882 -1.0211127 0.47120255
0.36741206 -0.17930171 -0.001017832
2.3633735 -0.84593767 0.62311298
2.4750257 -0.99512428 0.71800929
0.47823608 0.35443026 -0.0083545521
2.4800408 -1.1395177 0.99483055
2.3444805 -0.67513394 0.61387563
2.3978722 -0.85574174 1.0693504
0.89159298 0.3084549 -0.020387741
2.3541126 -1.2380269 0.11199076
2.3948667 -0.96644914 0.32587475
0.36865672 -0.04382962 0.0018733735
2.3328424 -0.72214001 0.67803144
2.4003494 -0.72724473 1.2102326
0.49818587 -0.33361223 -0.0016424268
2.3040767 -0.50420058 1.087607
1.2790589 0.53262305 -0.028989732
2.3980761 -1.0435647 0.13125007
0.34142604 0.076311931 0.0027147066
0.46080932 0.0059455237 -0.0021851165
2.3681602 -0.86275184 0.47242209
1.0008606 0.55188781 -0.028680678
2.2762997 -0.52428555 0.59823996
2.4111416 -0.92450798 0.39121348
2.4681218 1.7854716 1.2475265
2.419086 -0.87270612 0.9565447
2.2903304 -0.51665449 0.76984215
1.1838179 -0.79314566 0.69436949
0.32426104 0.20142367 -0.0018046967
2.2743979 -0.51339406 0.11156718
2.3604226 -0.53446019 1.0623585
0.97635239 -0.36211577 -0.011536382
2.5373766 1.6425666 1.3941349
0.63069808 -0.51876605 0.012881021
2.3657079 -0.92045891 1.0635612
2.3134482 -0.65794927 0.44032606
0.72598153 -0.28180179 -0.0081264656
0.27959567 0.2157605 0.003947129
2.4436467 -1.1267036 1.0081388
2.362195 -0.7951355 0.8659392
2.330121 -0.62986213 0.93978339
2.3958681 -1.0164189 0.23991375
0.2964142 0.42493182 -0.0029888782
2.4380889 -1.2157423 0.86773586
0.97736567 -0.51380229 -0.0073575811
0.59924889 -0.40514791 -0.0025516185
0.59030712 0.22442967 -0.010076157
0.35108095 -0.063550457 0.0028094815
2.328068 -0.53222233 0.86789858
0.92698449 0.85067731 0.060332615
2.3835421 -0.95346755 1.0723416
0.93460685 0.8378337 0.14614473
0.53798455 0.16881101 -0.0059136697
0.43724039 -0.30465919 0.0010977433
1.3225247 -0.85897428 0.71964371
2.3558383 -0.70361924 1.1170039
0.55020344 -0.46825776 0.01000201
2.3422415 -0.74522662 0.63734621
2.4135511 -1.0190645 1.0882199
2.3779082 -1.008673 0.19636452
2.2950628 -0.85784155 0.42266628
2.3383121 -0.64419532 0.83001769
2.497705 1.473208 1.146715
2.5075967 1.8560072 1.3331983
1.3102059 -0.71164012 0.38133278
0.36374292 -0.14717408 0.0039943992
0.79946017 -0.1803717 -0.0098968958
2.3883271 -0.81761813 0.99132192
0.86243391 0.84330833 -0.016122213
1.0424206 0.69468611 0.16384244
1.3784175 -0.69470894 0.71544427
0.93239415 0.85355395 0.092206813
0.94741321 0.74805039 0.14601079
0.49946624 0.29664451 -0.0070471833
2.4450166 -1.1832663 1.1668357
0.28865483 0.47273296 -0.0025875079
2.3379378 -0.59068042 0.98653287
0.26988253 0.29726422 0.0031746188
1.2987925 -0.70775968 -0.011373824
0.38290456 -0.052627835 -0.0012035143
2.3122387 -0.50056285 0.089717388
0.36788413 0.59476471 -0.0031558862
1.3437922 -0.73583603 0.66671699
0.47246477 -0.10428322 -0.0014835137
2.3287995 -0.50445098 0.068393655
0.99889266 0.68003368 0.11245884
2.3949084 -1.046193 0.41542047
1.6691504 -1.3275794 0.72755086
2.3021507 -1.2099859 0.15658528
2.294142 -0.56066722 0.15164034
1.3029774 -0.70533961 0.69260168
0.89599597 0.32828358 -0.022495095
0.97848761 0.691998 0.11364406
0.92461181 0.89025599 0.15721202
2.4122462 -1.2178988 0.95874846
0.96959811 0.68423748 0.16591868
2.4961824 1.4416015 1.1415408
1.0059992 0.68757904 0.047781128
0.66889834 0.06445393 -0.011278708
0.71158105 -0.09481515 -0.0074575697
0.39875087 -0.29139745 0.0022176181
2.3717623 -0.83362681 0.19442557
2.3363945 -0.63969564 0.026727583
1.2914779 -0.78434068 0.69943166
0.44372532 -0.1561369 -0.0013624005
1.5413719 -1.0599751 0.39803582
2.2988524 -0.55504334 0.66604793
2.2876186 -0.58082485 0.2531186
2.4212294 -1.0144019 1.0407115
0.88404423 0.18486756 -0.012607184
2.4556596 -1.2357527 0.94730747
2.4562099 1.6422153 1.2186714
2.3568914 -0.66615784 0.13014464
2.3814471 -0.88424093 0.71679765
0.31048545 0.18717141 0.0035186827
2.3151815 -0.58873671 0.069336332
0.74028444 -0.55502391 0.009615723
2.5130587 1.5174893 1.2153051
0.33718738 0.31248158 0.00028165372
1.453143 -1.0577536 0.50823772
2.2983837 -0.55117369 0.60266304
0.43052304 -0.036191769 -0.001987539
2.3858037 -1.173521 1.0948952
0.30178419 0.54472464 -0.0013859711
1.332059 -0.7667433 0.68113965
1.7703335 -1.1117682 0.72330499
1.3372015 -0.75106972 0.58377492
1.3861327 -1.0354818 0.52501333
2.4181681 -1.215305 0.31083038
2.4351952 -1.1412331 0.33197573
2.432862 -0.9137699 1.2122854
0.30726197 0.21652077 0.0029202977
0.95372474 0.88483709 0.20034553
0.40169841 0.1086372 -0.0019340219
2.4964643 1.3365755 0.77903926
0.38908812 -0.14477335 0.00072068407
0.91727251 0.90753609 0.025655922
0.34854573 -0.1826992 0.0011901713
2.3321776 -0.66757762 0.85167181
0.39219809 -0.31765258 0.0054227468
2.4404886 -1.2256517 0.26671875
0.72414768 -0.11001211 -0.010990069
2.4258964 -1.1089008 0.2862471
0.70330191 -0.10729269 -0.011844307
0.41920793 -0.093013957 -0.0017598345
0.47945559 0.13872467 -0.0036212087
2.3145628 -0.60988951 0.27458951
8.6468048 1.6411231 -0.20267904
2.3638601 -0.84454894 0.86918312
2.3480661 -0.96392423 0.87280285
1.8979485 -1.1280992 0.49037132
2.3797159 -0.49504995 1.0919496
2.4177415 -1.0728157 0.89903462
1.0806483 0.11565258 -0.033902906
2.4142754 -1.0621803 0.55133313
2.3303442 -0.62537569 0.89430553
2.2981045 -0.74351728 0.78005719
1.1344609 -0.49043265 -0.014354997
2.3939462 -0.98407203 1.0785075
0.37958065 0.31702465 -0.0015283821
1.1290855 0.42378315 -0.023178924
1.1423717 -0.22070278 -0.022171134
0.54956979 -0.011853368 -0.0054253195
2.4010181 -1.1792521 0.087813012
0.79280311 0.35827371 -0.018307246
2.3738153 -0.77479964 0.86796731
2.3017657 -0.53382516 0.66610813
0.412155 0.14568354 -0.0016011983
0.40418383 0.75413191 -0.0052284086
1.1565291 0.69775808 0.21960777
2.4547186 1.8458591 1.254616
0.34826037 0.017554319 0.0027010294
1.3185148 -0.72547966 0.13489197
2.3175995 -0.69972062 0.17265971
2.4544842 -1.2430325 0.80126971
1.1872048 0.7018525 0.28048557
2.3944986 -0.98921025 0.93396336
0.76215762 0.0041813594 -0.0083456784
2.4425583 -1.0824209 1.0786078
0.26733959 0.4609848 0.0010281577
2.4102349 -1.023411 0.30595019
0.6465807 0.0024342146 -0.0088803247
1.3448756 -0.72380275 0.59650606
2.3831627 -1.2386882 0.80959797
0.40175983 0.61935616 -0.0087693203
2.2868056 -0.52907711 0.64197981
1.3463811 -0.7414819 0.59865361
2.3364286 -0.5518766 1.0543931
0.38194105 0.55640453 -0.0050751278
0.31035516 0.42041895 -0.0010524458
2.3921971 -0.73255712 1.0834379
1.2055503 0.89923048 0.19877183
0.53213632 0.4184072 -0.0087454021
0.4280048 -0.12266087 -0.0022146809
2.3087881 -0.60848153 0.11070685
0.5311451 0.56912172 -0.0092408266
0.53887475 -0.06239327 -0.0062828893
2.4375765 -1.1687611 0.28790256
1.2922683 -0.89662087 0.71623898
2.4277115 -1.2109005 0.62930083
0.74361563 -0.1832092 -0.010067272
2.3519721 -0.62528551 1.0632356
1.2005819 0.71515661 0.011662481
0.3600347 0.1070888 0.00053773576
2.3594453 -0.83869243 1.0311016
1.0667568 -0.14765659 -0.027394317
0.41910115 -0.057851247 -0.0011971542
1.691076 -1.1376115 0.72613025
2.3629482 -0.73883194 1.0020857
2.3839042 -1.0316621 0.65758795
0.47054183 -0.21558672 -0.0015343975
2.3274281 -0.6831767 0.78451484
0.45114282 0.076923966 -0.0020167399
2.3010037 -0.49769312 0.13086283
0.43761599 0.72644842 -0.0067494684
2.3172407 -0.54655927 0.37672475
0.83016479 0.073207662 -0.012277106
0.68189663 0.26537758 -0.0136465
2.5421975 -0.48069072 0.87914503
2.3331482 -0.50091827 1.0047435
0.99608266 0.69119918 0.11246298
1.2672081 -1.0082635 0.50287086
2.5051365 -1.1734409 0.31295851
2.293721 -0.54276127 0.8147366
2.3964124 -1.017028 0.13111934
2.4024124 -1.019312 0.15278685
2.4157672 -1.0159851 1.0638193
2.5284016 1.4951373 1.2164893
2.3348303 -0.68939137 0.83097494
0.44292679 0.3083885 -0.0065767588
0.95839274 0.69033003 0.12529898
2.3992262 -0.95067507 0.81542414
2.2890782 -0.48635802 0.64149964
1.3419245 -0.72661138 0.5156033
0.81357867 0.38522422 -0.016730146
0.93715042 0.7962203 0.13569357
2.3645225 -0.8422507 0.84634715
1.6393317 -1.108737 0.45878735
2.4923823 1.5426368 0.77180099
0.96151859 0.69168085 0.15591845
2.395993 -0.9036622 0.85804003
0.61511797 0.42887896 -0.011763157
0.59951752 0.11403736 -0.010781946
1.032077 0.68715131 0.20725389
2.3311357 -0.72327185 0.69943339
2.3908641 -0.95271426 0.85988081
2.3820748 -0.97497123 0.85916704
0.51682591 -0.074969053 -0.0033578239
2.4450994 -1.2415105 0.82321733
0.49982008 -0.072925843 -0.0019849672
0.4930608 0.56011909 -0.006082342
1.3461614 -0.72225583 0.58307201
2.3289649 -0.65815836 0.25493684
0.6611312 -0.082726814 -0.0059439708
1.0389636 0.86510217 0.19932283
2.3792777 -0.85684019 0.69270587
0.61220998 0.12527356 -0.009459882
0.63841605 0.30431181 -0.011993325
2.3366544 -0.75206888 0.29800379
2.4640486 -1.0446317 1.1329181
1.3400738 -0.73571384 0.58292681
0.92682624 0.83219194 0.11459947
0.61833972 0.82124507 -0.01199632
0.62576336 0.18001001 -0.01107162
2.4503784 -1.1617501 0.58365744
1.6971792 -1.1881638 0.71580112
0.6441313 0.18838157 -0.01072161
0.92255342 0.88134921 0.015513211
2.4802244 1.5249416 1.1494999
2.3351007 -0.79875124 0.068704888
1.6008706 -1.2206442 0.69872952
0.54033113 0.07432349 -0.0055009704
2.5093384 1.4895965 0.71668679
2.282912 -0.66869873 0.050887443
2.28949 -0.49627751 0.79065055
2.3946476 -1.0424349 0.10952941
2.3873858 -0.71977603 1.1794015
2.3086793 -0.54454386 0.79688621
2.3888361 -0.90366161 0.87942553
2.3169565 -0.56878734 0.79973793
0.33245945 0.048421603 0.0037545194
1.1448604 0.69061005 0.24271742
2.3750854 -0.69500887 0.31988603
0.90805084 0.22453819 -0.019681219
0.49989137 0.78891677 -0.012335649
2.3221655 -0.59252089 0.80183768
1.0972483 -0.47526318 -0.01792375
2.4448891 -1.0809019 0.62469625
0.90542066 0.25020349 -0.020326501
2.3027782 -0.70081872 0.80114901
1.4674749 -1.078952 0.57346761
0.94364411 0.81507754 0.17783977
0.40936685 -0.093437627 -0.001707033
2.4257684 -1.088236 1.1497096
0.32959428 0.51817167 -0.0021518122
2.4244053 -0.99122083 0.59455025
2.2848113 -0.49068618 0.7251215
2.4012206 -1.0218639 0.96232867
2.4076116 -1.0473304 0.24056889
0.92459953 0.83488309 0.039736148
2.3928456 -0.92520958 0.83542335
0.71752149 0.7059657 -0.016948892
2.3895667 -0.49529585 0.81627148
2.4061391 -0.98199606 0.84231335
2.3270421 -0.66761899 0.56813812
2.6236072 1.6220909 1.3274871
2.421222 -1.0145156 0.84817439
0.48122182 0.32649776 -0.0052699968
0.49142212 -0.34747341 -0.0010884892
2.4584453 -1.026809 0.53279746
0.28850207 0.28535008 0.0030956247
2.4270387 -1.070629 0.85357076
2.4305534 -1.1550617 0.86091852
0.5250864 0.29515931 -0.0092133218
2.2958217 -0.5509662 0.90365565
0.69846195 -0.1229974 -0.010522601
2.4164972 -1.263041 0.86685187
0.92093265 0.87093234 0.15735173
0.67065769 -0.36501685 -0.0049624993
2.4340415 -1.126536 0.57965165
0.39900884 0.50606102 -0.0056487275
2.5628598 1.589445 1.3625038
0.48349276 -0.12298648 -0.0014460647
0.4716377 0.52346963 -0.0084470045
0.92920148 0.89782298 0.0911889
2.3044064 -0.60857797 0.77610636
2.4039822 -1.2069563 0.17668843
1.3417969 -0.75138211 0.57131535
0.62066042 -0.063969664 -0.0058519794
2.4343419 -1.2229419 0.28906795
2.3376873 -0.66344404 0.40100098
1.058135 -0.5300504 -0.012685543
0.56796259 0.41300511 -0.011233298
0.42062545 -0.19382226 0.00072485791
2.1170163 1.5929291 0.76177663
1.7829381 -1.1161978 0.70827806
0.64815468 -0.51689935 0.033534918
2.3960972 -0.65812546 1.0564855
1.7522686 -1.1212962 0.7020691
2.6538372 1.3062392 0.99875653
0.36231241 0.49634057 -0.0058178157
0.3814868 -0.12395285 0.0014199429
1.1394333 0.70123905 0.26629639
1.5730067 -1.0793618 0.56037503
2.4036226 -1.0199131 0.26191017
0.60369784 0.015763916 -0.0077108331
0.31529081 0.5663535 -0.0035972842
0.45960155 0.036414765 -0.003011378
1.3058153 -0.73380643 0.17230254
2.4010966 -1.0457011 0.087428339
1.2323668 -0.001769583 -0.04015613
0.66582543 0.03645324 -0.0093632061
0.27379537 0.21777059 0.0062198956
0.53994089 0.30631384 -0.0091971308
2.3004212 -0.54505873 0.45749608
2.3138621 -0.56629449 0.77704817
2.3612561 -0.78271669 0.23613791
2.3101571 -0.63263398 0.77836424
2.3193953 -0.65792245 0.78156376
1.5519193 -1.1721576 0.63179338
2.5291669 1.59495 0.72924805
1.3168008 -0.71046847 0.085596524
0.65930355 0.085022844 -0.0092646703
2.4096825 -1.1030853 0.35194525
0.61828703 0.02778385 -0.0068378984
2.3217626 -0.77471554 0.78723955
1.276601 -0.1053064 -0.035839751
0.41655886 -0.035365738 -0.00013580549
0.48035219 -0.33377999 -0.001394777
0.48594818 0.23978025 -0.0064541041
2.416688 -0.97580898 0.34904021
1.3284254 -0.7469095 0.24687487
2.3533037 -0.80928159 0.79652995
0.84186697 -0.044683073 -0.012702878
2.3540463 -0.49574092 0.56850022
1.4183351 -1.0439043 0.42907593
2.3258512 -0.54526395 0.7575596
2.4004204 -0.87511247 0.81127715
2.4086666 -0.92875665 0.81631786
0.33849213 0.17642228 0.0018861541
2.280812 -0.55729264 0.21237707
2.4341333 -1.1256367 0.83557785
2.513396 -1.2202514 0.86105579
2.4822648 1.4001787 1.0761349
2.2952328 -0.5092985 0.64315617
0.47117844 0.026324157 -0.0024689371
0.45641518 0.72482765 -0.010007614
2.3204343 -0.51038504 1.117823
0.63769609 0.31479642 -0.012779294
2.3963299 -1.0461203 0.75168061
2.3264709 -1.2230721 0.13457522
2.2864075 -0.55940896 0.091068372
0.51043576 0.21421906 -0.0064896629
0.37824175 -0.013305625 0.00064946688
2.387495 -1.2443353 0.83466107
0.92028326 0.89522445 0.014932886
2.3478649 -0.72118568 0.88097924
0.37869641 0.49645945 -0.0043986584
0.9402054 0.71583813 0.13627408
0.91823137 0.32678115 -0.018178931
1.151691 0.70889473 0.2908181
2.3726377 -0.81049526 0.13050096
2.3723338 -0.88426548 0.045462076
0.80897141 0.28878132 -0.025418878
1.8188591 -1.0623355 0.69218075
0.72088784 -0.41270906 -0.0065025794
0.62105429 0.29640207 -0.013084957
2.3661394 -0.88053584 0.1098069
0.58162534 -0.022759879 -0.0052094767
2.2650905 -0.61814421 0.17261173
1.3298841 -0.013313459 -0.034143269
0.40636027 -0.32398933 0.0042737206
2.42609 -1.1657478 0.3770273
1.5836347 -1.0979959 0.48349148
1.6042062 -1.1579124 0.62348545
2.4310267 -1.1835765 0.86336422
2.5475812 1.5151531 0.80565882
0.9282679 0.83299655 0.12515259
0.46544364 -0.2500222 -0.0027139741
0.46234569 0.36646369 -0.0052803303
2.4300811 -1.0534505 1.0969392
1.0059479 0.8684746 0.19962834
2.4651814 1.77915 0.70999002
0.72063744 -0.062643349 -0.010127587
0.56972969 -0.0014291276 -0.0072658518
0.34056237 0.51816386 -0.0048722452
0.35721174 0.38436115 -0.002405568
2.2950842 -0.58215886 0.75137502
1.5032418 -0.91887391 0.71888065
0.56483269 -0.15453206 -0.00574427
2.3041089 -0.62919569 0.7550652
2.3261759 -0.68091881 0.76215899
2.3144212 -0.70042217 0.76019704
0.33311397 0.28489211 -0.0013932389
2.4326985 -1.1935805 0.15375337
0.5682587 -0.24134797 -0.0050359531
2.2917027 -0.58299017 0.33453107
2.4158328 -1.2445363 0.37900022
2.2969222 -0.71804619 0.75686431
2.3185828 -0.72274709 0.23479547
0.95739537 0.71468538 0.16638178
2.3687146 -0.82525843 0.64512604
0.38134351 -0.24512009 0.0018651418
0.6412195 0.7324124 -0.014236963
1.1677814 0.70464218 0.20795651
0.94580692 0.76026297 0.15646194
2.4512455 1.805039 1.2165405
0.90397525 0.34053257 -0.024957446
2.3612895 -0.78578329 0.77484959
0.66213632 -0.46270132 -0.0032888858
2.4002702 -0.94219381 0.23883796
2.3890207 -0.93888378 0.087654084
2.4099381 -1.0618896 0.57321692
1.3106354 -0.73858726 0.29562455
0.69784188 0.24952804 -0.009676096
0.56093049 -0.25408071 -0.003473189
2.3836663 -0.95268512 0.88131845
0.61959273 -0.27423015 -0.0047667432
2.3921072 -0.98964077 0.72456771
2.3192315 -0.81924987 0.76679987
2.3714991 -0.53631437 1.2632113
2.3470626 -0.90260339 0.77770263
2.3586979 -0.93214065 0.78207749
2.4819937 -1.2538302 0.78359389
1.1346707 0.70429814 0.0084831165
2.3935037 -1.0501176 0.79746848
0.4498089 0.34718573 -0.0040155412
2.3335044 -0.77261209 0.72378701
1.0021117 0.89709967 0.1887178
2.5389659 1.3391733 1.0286403
0.34979889 -0.15436797 0.0034895872
0.61996675 0.40747523 -0.010641312
0.63429987 -0.37476033 -0.002822764
1.8849524 -1.1111335 0.61694044
0.67746115 1.0066587 -0.0034988392
0.93447661 0.79703802 0.072428212
2.4998314 1.3816172 1.1060779
2.425926 -1.1188455 0.80952477
2.4242625 -1.145779 0.81115115
2.3799193 -0.98498482 0.10979117
2.3233607 -0.6310854 0.71618676
2.4135034 -1.1686019 0.81052983
0.390385 0.37735745 -0.0064441897
1.3715625 -0.77895504 0.392124
2.3695509 -1.0873736 0.74889803
2.5334349 1.4741729 0.74566537
1.1908818 -0.71323544 0.68453246
2.3205147 -0.57734698 0.88958824
1.6285037 -1.194023 0.71887892
0.52387804 -0.31626248 -0.0023889581
2.4580996 -0.76650798 1.2103732
0.9714753 0.68535668 0.1761757
0.66240013 -0.28393179 -0.0047251806
2.4336798 -1.1736754 0.46806636
1.5579906 -1.0869738 0.52671582
2.3614733 -0.86375839 0.53644723
1.1988412 -0.76483995 0.68147004
0.55684912 -0.42964339 1.3523232e-05
2.3790698 -1.0110005 0.066662744
2.3089345 -0.51775759 0.73127633
1.20149 0.71625829 -0.00095628493
1.068018 0.10454106 -0.031006334
0.51948315 0.50030571 -0.010310373
0.53421634 -0.13403317 -0.0053857146
2.3080692 -0.53954452 0.73163933
1.3475405 -0.75976247 0.49287748
0.73314732 -0.56137478 0.010557398
2.2915366 -0.57964265 0.72902238
2.3004549 -0.60413527 0.7318067
0.6023789 0.14956179 -0.0079269074
0.94825435 0.7081095 0.15639757
2.4141729 -0.99243116 0.66075301
0.7153998 0.37236467 -0.016655046
0.63676113 -0.19386271 -0.0064148512
0.37923098 0.56423062 -0.0059560803
2.3631275 -0.83932239 0.82307923
2.3062911 -0.62808323 0.73391753
2.4354744 -0.95641005 0.96712178
0.98879296 0.69739503 0.18638456
2.387933 -1.0186849 0.77111959
0.36982727 0.085108735 -0.0017866441
0.99208641 0.68695861 0.16527487
2.3044324 -0.52862066 0.56135589
2.3294814 -0.77319509 0.7448802
2.3596544 -0.90513855 0.758201
2.3892961 -1.0722176 0.77494431
1.3283868 -0.73053944 0.24643992
2.4815228 -1.09937 1.2495878
1.2195644 -0.81339806 0.6952939
0.84040874 -0.13355106 -0.011961365
2.4273424 -1.1442875 0.78809559
2.4458077 -1.0457906 1.1781255
2.3927722 -1.0933195 0.15362717
2.4067912 -1.107178 0.78109038
1.0483958 -0.058950547 -0.024052871
2.3346975 -0.49483392 0.93629193
2.3704419 -0.91147846 0.45256978
2.4763553 -1.0871521 1.193369
0.51545638 0.47063318 -0.011558036
2.4198432 -1.0515705 0.7106818
0.42679277 -0.26274103 0.00034183683
2.3822017 -0.76086372 0.93895632
0.38949794 0.17444231 -0.00028456899
1.0093206 0.6853019 0.18597028
2.4693532 -1.1925603 0.8005091
2.3429081 -0.77388656 0.70389366
0.50382084 0.095787674 -0.0041743745
0.91651499 0.89263201 0.0045233569
1.3361764 -0.7253381 0.52756703
1.6117857 -1.1147338 0.62018931
1.3252182 -1.0193067 0.55553442
0.33767885 0.25001115 -0.00036347983
1.1206948 0.7035799 0.27716848
0.37286472 0.68442732 -0.0014760836
0.28141394 0.23731166 0.0030699384
0.41677216 -0.08621674 -0.00048108542
2.5597327 1.4020786 0.85055375
2.3079777 -0.56008703 0.71070451
2.3178229 -0.69783491 0.71735823
1.8644212 -1.1103127 0.68796098
0.66018063 0.17661944 -0.00801758
2.3198948 -0.72151667 0.71873039
0.93144405 0.89648896 0.16791143
1.0656127 -0.52140975 -0.013709921
2.3226516 -0.74561483 0.72030926
0.96361578 0.68668997 0.010899259
0.46441007 0.085995957 -0.003288931
0.48798886 -0.20310917 -0.0020581107
0.47784585 0.42616478 -0.0072586606
0.64501542 -0.47038743 0.00010463571
2.3514495 -0.80242085 0.72894681
0.52499557 0.06964834 -0.0050997296
2.399832 -0.91834754 0.32507846
2.3682818 -0.8814109 0.73635274
0.92761713 0.82430053 0.018370474
0.57754666 -0.26066664 -0.0033343495
2.3906829 -0.99135965 0.74714363
2.3531404 -0.75929046 0.38309419
0.46822211 -0.13152198 -0.00059126009
2.379365 -0.7713241 1.0331894
2.3812585 -1.0659969 0.74986762
1.161761 0.70567423 0.028983496
2.4580185 1.6453103 0.74961352
0.3689543 -0.24390222 0.0027092642
2.7836249 -0.47679204 0.46133581
2.4137847 -1.1909314 0.76519597
1.3283753 -0.71448004 0.14683098
0.41886577 0.44406375 -0.0054019988
2.3744695 -0.80159903 0.62324983
0.55394447 -0.47969988 0.014138027
1.3951758 -0.73465908 0.71075994
0.57195014 -0.041317143 -0.00727524
1.3196948 -1.0309228 0.52771884
2.3523407 -0.8283394 0.06783618
1.6481066 -1.1126022 0.60995275
2.3832548 -0.89630884 0.54051125
0.61954194 -0.13420771 -0.0058345068
1.8787221 -1.127085 0.57997185
1.5920281 -1.1217742 0.60062355
2.4536142 -1.260566 0.24497424
0.50633514 0.51547849 -0.0092543997
1.3884287 -1.0426779 0.55530465
0.45742023 -0.21590246 -0.0015508543
0.44976747 0.43718433 -0.0070947045
0.92626613 0.7538721 -0.0088119432
0.94884896 -0.5579108 -0.0040596826
0.63132429 -0.33404043 -0.005541293
1.2934092 -1.0345995 0.53753495
0.44165018 0.18663293 -0.0042812461
2.5674739 1.4660801 0.83153546
0.39059854 -0.090244852 -0.0014074648
0.3787545 0.087137766 -0.0021165714
2.3617876 -0.65150577 1.0680615
0.3639991 -0.29318994 0.0058747311
0.55163777 -0.20795757 -0.0034077526
0.93522483 0.71706414 0.033979885
0.25068483 0.41934425 0.0023304033
0.61294395 0.99406356 -0.0031588795
0.63340151 -0.31224731 -0.0046915407
2.4021933 -0.91153944 0.90691888
2.3126833 -0.6042192 0.69153899
0.68417203 -0.17636995 -0.0071327537
0.58873832 0.21763948 -0.0089917909
0.44898519 0.33414456 -0.0072097476
2.3337402 -0.68720043 0.46400425
2.3215621 -0.69726902 0.69648015
0.98591477 0.682307 0.1862504
0.60547429 -0.099790834 -0.0069049103
2.373899 -0.83239949 0.71279305
0.9443 0.71834958 0.15653785
2.3806696 -0.90885144 0.7178846
0.5215835 0.29956904 -0.0086520948
2.4310784 -1.0588126 0.73638982
0.35270402 0.55603218 -0.0041643097
2.455723 -1.1242743 0.74536812
0.77552342 -0.11688428 -0.010728333
0.57712281 -0.19545333 -0.0056215478
2.3150916 -0.50524765 0.84131712
2.4328117 -1.1413513 0.74202675
0.80828977 0.64912486 -0.01958984
2.4230082 -1.1645302 0.74170303
2.3960147 -1.0691075 0.1096089
0.31016493 0.24703632 0.0018355919
2.4260082 -1.2515 0.7485618
1.3527317 -0.73068678 0.50477004
2.524354 1.4387043 0.74095666
2.3824065 -0.9683376 0.49926981
0.87105811 0.021371817 -0.012754235
2.4163353 -1.0913785 0.57550281
1.6497804 -1.1108271 0.59316933
2.2608039 -0.6664508 1.0100724
1.2083281 0.62259179 -0.034528863
1.3159242 -0.71695429 0.40743616
1.0998098 0.68513477 -0.032369435
1.1318134 0.7106337 0.28973177
2.3109128 -0.60528362 0.71266276
0.76973724 -0.54305387 -0.0032817882
8.644083 1.6402498 -0.12422625
1.390505 -1.0414293 0.54090947
0.30983821 0.32692203 0.00012410565
0.92203444 0.90472579 0.135432
0.45734364 0.22638795 -0.0051641231
1.3646395 -0.73224705 0.46726412
1.2478449 -0.99544483 0.51169199
1.3635873 0.62577534 -0.032570481
2.5871298 1.4763054 0.80904865
2.3071537 -0.57912731 0.66834098
2.3057165 -0.60094517 0.6686632
1.6357754 -1.1082498 0.47466901
0.33397269 -0.1414783 0.0071113785
0.91745567 0.92429167 0.024639523
1.0039256 -0.047666438 -0.024215508
0.46929047 -0.17369083 -0.003076466
0.45994055 0.60967922 -0.0063989912
2.3611779 -0.74355465 0.51110423
0.94281286 0.73238611 0.10502124
0.4591656 0.10532705 -0.0027140453
0.44821197 0.75846934 -0.0063293991
0.59328741 -0.19406527 -0.0049900026
2.3378215 -0.67752171 0.67743391
0.66348821 -0.48233825 0.0017670901
2.322289 -0.69587386 0.67499721
2.2940643 -0.61868119 0.64570427
0.93158907 0.82322258 0.082442202
2.4551601 -1.2097179 0.42581245
2.340301 -0.74778074 0.68047261
0.79639262 -0.34969595 -0.0060673244
1.3335488 -1.0149136 0.50032902
0.93349892 0.75226617 0.10527673
2.3599432 -0.80160844 0.68650502
2.3962841 -0.88776547 0.69744724
2.3374438 -0.5775373 0.8496536
2.4257505 -1.0275996 0.7104122
0.92037922 0.73627299 -0.017078187
1.1120014 0.69807762 0.26500964
2.310333 -0.81204718 0.21505789
2.5659742 1.49225 0.7258215
0.94115371 0.77111173 0.13571954
1.3236632 -1.0393174 0.43204224
2.3407078 -1.0150206 0.67138129
1.138456 -0.20931138 -0.021396713
2.2883523 -0.58080149 0.21262102
0.84922618 -0.5577392 0.0051300395
1.6453661 -1.0932339 0.49111673
1.3418123 -0.73970056 0.49026361
0.94166481 0.7711755 0.14615515
1.3039943 -0.71942341 0.086508609
2.5840981 -1.2363758 1.3040285
0.78389281 -0.54139102 -0.0060706344
2.3511467 -0.80354804 0.29941869
0.59994364 0.26661348 -0.010610606
0.36751425 -0.063873708 0.00096361578
2.3006067 -0.63285434 0.45916569
2.3906488 -1.0398186 0.19670746
1.8876063 -1.1374886 0.61964744
0.93805403 0.75506371 0.12565503
1.6227471 -1.0899009 0.56976742
1.4242271 -1.0416775 0.53189832
2.4540968 -1.2056779 0.33456954
2.5153475 1.5257465 0.77410537
0.91638708 0.089472108 -0.016483774
2.5162854 1.4955394 0.77135277
2.3431818 -0.89921331 0.40687743
2.3570654 -0.82918203 0.10990449
2.4312901 -1.1526649 1.1845415
0.3394796 0.54334974 -0.0042621531
2.4162636 -0.89165032 1.1030527
2.4839165 1.4165053 0.75823873
1.1704276 0.70602989 0.26780215
2.4614096 1.8355694 0.39195314
0.93036842 0.85004306 0.12478585
0.92546099 0.92368299 0.15717722
2.2934844 -0.55243385 0.64381284
1.1497507 -0.48455557 -0.016817247
0.90586609 0.076024272 -0.013749118
2.3045106 -0.69934297 0.77963012
2.4026079 -0.96017355 0.63466895
0.3823753 0.52540332 -0.0051702508
2.3018308 -0.57644123 0.64601469
1.2352135 0.71543366 0.25841653
2.2969799 -0.64177036 0.64695126
0.65894598 -0.49452281 0.0017859227
2.4392695 -1.2265178 0.33449918
1.2695687 -1.0076296 0.48972371
2.3166471 -0.66988933 0.65156466
2.3583138 -0.97521412 0.19602339
2.4293983 -0.85598081 1.1803962
2.3669066 -0.68930328 1.1693689
2.3537219 -0.77402025 0.66226101
2.3465221 -0.78567493 0.51046705
2.3652892 -0.80169696 0.66552508
0.95056814 -0.35334459 -0.015104491
0.47164303 0.064506747 -0.0047386102
2.324302 -0.72540551 0.08989951
0.52571279 -0.058784127 -0.0067228531
2.4471149 -1.1813357 0.98944336
2.3672619 -0.82643652 0.66692072
1.2600925 -0.71913385 -0.0184053
2.4097397 -0.99261075 0.68266112
0.67817909 -0.35244575 -0.0061088847
2.4372683 -1.0837753 0.69271129
2.4379051 -1.1946747 0.6997118
2.3854313 -0.99159533 0.76887834
2.3877447 -1.1468835 0.044303585
2.286731 -0.51598054 0.13133857
1.2929883 -0.72051191 -0.010922376
0.34152418 -0.032549828 0.0031752933
1.0677894 0.69148278 -0.016082074
0.60823864 -0.21399434 -0.004526054
2.4884715 -1.2810724 0.36140642
1.322076 -0.71531302 0.34526464
0.53652018 -0.014343224 -0.0060388632
1.8847643 -1.1085001 0.59804535
0.6135155 0.71549553 -0.01533885
2.4302943 -1.0838567 0.26365316
1.8824304 -1.1317747 0.59955746
1.4375582 -1.0360107 0.43061641
0.30044284 0.34874487 0.00042695206
1.8637908 -1.111562 0.52151728
0.93901044 0.76974779 0.12539794
2.3473184 -0.81183529 0.84022695
1.5488989 -1.083123 0.54081684
2.2460387 1.4973259 1.0775408
0.63752615 -0.51986188 0.031922232
1.3241688 -0.7182247 0.3707
0.50475311 0.42871016 -0.0089784367
0.41541889 0.18307507 -0.0030390436
0.47467309 -0.036166407 -0.0020787828
0.45816192 0.46543893 -0.0080747707
1.6989087 -1.1248175 0.4667699
0.78157276 -0.56100237 0.005199898
1.2018473 -0.99449027 0.47802663
0.51963985 -0.11554984 -0.0048938873
0.48996738 0.22772278 -0.0064020753
0.512559 0.54031265 -0.0077054659
2.3970926 -1.0192943 0.043881577
2.396605 1.7321153 0.74866384
0.93724179 0.79819816 0.093360864
0.9903748 0.69815433 0.2178814
2.3521495 -0.65782177 1.1371832
2.5829787 1.6625394 0.77146709
2.3320129 -0.70657116 0.38046303
2.3041635 -0.51524103 0.70871878
2.5343242 1.5362682 0.75152618
2.4270129 -1.1946172 0.74458867
2.5471506 1.5129327 0.7514779
2.4582245 -1.193537 0.58637756
0.42619264 0.30332541 -0.0053048064
2.406805 -1.0470952 0.15293796
1.3460468 -0.72421807 0.25933626
2.3905501 -0.92646271 1.0479996
0.67851216 0.39809722 -0.017340584
0.72678226 0.54385442 -0.019507738
0.67711306 -0.25361246 -0.0074570659
2.306787 -0.57639581 0.62579912
2.3998621 1.8571531 0.39006749
0.82184201 0.36208737 -0.016932542
2.3389108 -0.65208423 0.63369524
0.28019878 0.37063751 0.0017060634
2.3791983 -0.85873163 0.71510118
2.3575828 -0.68027949 0.63792264
2.6791265 -0.48837471 0.59522021
0.67452461 0.10918695 -0.0083370209
2.4039114 -0.96253783 0.65747708
2.3384671 -0.50595421 0.27433115
2.4050233 -1.0146052 0.66031563
1.1637956 -0.81478435 0.69150221
0.37735403 0.58386397 -0.0031525574
2.4217668 -1.2158412 0.2213452
0.43503231 0.29160184 -0.0065207728
1.10324 -0.38557917 -0.027125826
0.74303287 -0.12285631 -0.0092797792
2.3323689 -0.64893466 0.61103147
2.3598118 -0.8117739 0.47002867
2.3048785 -0.52157968 0.79525942
0.43854058 -0.18086801 -0.00088726671
0.58397067 0.74927676 -0.014023095
2.4428005 -1.2230916 0.67899561
0.95768356 0.67502779 0.24751817
2.5779176 1.4668816 1.3161197
1.2285345 -0.78037173 0.67955971
1.3378063 -0.73429745 0.46301973
0.48858458 -0.4021672 0.0043142508
1.8811775 -1.1535115 0.5824824
0.92764759 0.90901631 0.16808526
0.45057574 -0.013611728 -0.0019869246
2.3899701 -0.96811849 0.43443483
2.4101696 -1.0457375 0.91880333
0.52967548 -0.38626757 0.0001086301
0.93548691 0.80858719 0.15682584
2.4345741 -1.2214948 0.70091683
