# .PCD v0.7 - Point Cloud Data file format
VERSION 0.7
FIELDS x y z
SIZE 4 4 4
TYPE F F F
COUNT 1 1 1
WIDTH 1438
HEIGHT 1
VIEWPOINT 0 0 0 1 0 0 0
POINTS 1438
DATA ascii
2.3569877 -0.89780718 0.69035047
1.3470658 -0.77891374 0.61658484
0.35952306 0.41237092 -0.003827486
0.59532815 0.20153333 -0.0096569993
1.3350281 -0.74385238 0.41157824
2.350132 -0.95930117 0.56033272
0.45581216 0.25795195 -0.0036296132
0.99898648 0.83167744 0.21016793
2.0029409 1.4712154 0.57116777
2.4930787 1.4062786 1.0799878
0.46040761 0.45482618 -0.0069535789
2.3403542 -0.93049037 0.55775839
2.3364429 -0.88004255 0.55519986
2.3470798 -0.85980511 0.55594009
2.3275824 -0.80515254 0.55122089
2.2721004 -0.60678416 0.53745025
0.39990407 0.050359726 -0.00033157147
2.2911818 -0.56802714 0.53936362
2.2807429 -0.54377627 0.53733164
2.2835543 -0.52285826 0.53733724
2.35378 -0.90123659 0.34380722
1.2644546 -0.83605278 0.68471724
2.6082897 -0.45138273 0.58425808
0.49110383 -0.051012613 -0.0036262639
0.48232052 0.60280567 -0.010220964
0.40779203 -0.040881578 -0.00041498279
2.0157819 1.1465443 0.54641002
1.3164738 -1.0356681 0.44459292
0.89930451 0.89422536 -0.01521238
1.3718784 -1.0349742 0.45141754
1.0998899 0.69766349 -0.0098137977
0.51409101 -0.39971796 0.0030273187
2.2892025 -0.51952034 0.41495222
0.6604889 0.13828653 -0.012338599
2.4029167 -1.0690739 1.0894871
2.3034825 -0.74824601 0.50394523
1.6104485 -1.1165868 0.48843101
1.6396015 -1.0894036 0.4900679
2.2804315 -0.71094108 0.15282188
0.4694095 -0.22057819 -0.0015168199
1.2923486 -0.74447584 0.29479414
0.88671952 -0.066953771 -0.015157171
1.8842379 -1.148549 0.52688384
2.4477727 -1.2921591 0.42844322
2.3558137 -0.99930072 0.19632174
2.0177474 1.1471931 0.52592844
0.67059696 0.31926802 -0.015142641
1.3094207 -0.74728048 0.42113844
2.3091631 -0.49961394 0.27329645
1.3002524 -0.73221254 0.28250012
2.3926966 -1.2573812 0.17745104
2.3059275 -0.78749859 0.15286021
2.3712213 -0.90268779 0.92118818
2.3671427 -1.2629876 0.60077786
2.4206765 -1.1640433 0.39904073
0.61863464 0.050737862 -0.0077711754
2.278358 -0.58166587 0.41490474
2.4007528 -1.195353 0.60149896
2.4180701 -1.0939415 0.59852213
0.47828394 -0.098502338 -0.0037200556
0.47924519 0.15092996 -0.0047060838
2.3446696 -0.76631165 1.0688094
0.50447148 -0.40922976 0.0046353489
2.3502352 -1.0372657 0.58581197
2.4127963 -1.2117443 0.26586822
2.3561783 -0.93829793 0.58211625
2.3627436 -0.91604346 0.58214939
1.004508 0.8517015 0.19934082
1.0185232 0.53738832 -0.020526268
2.3478162 -0.88576114 0.57868034
0.60033149 0.321118 -0.0096981851
0.28499997 0.18689102 0.0042292518
1.4974673 0.079623237 -0.050341163
2.407233 -1.1035433 0.39610818
1.8798035 -1.1438264 0.50755912
2.3464406 -0.86096859 0.57749569
1.0705342 0.69904608 0.28564957
2.458205 1.612579 0.71995264
1.2503154 0.3568494 -0.04150195
2.3982723 -1.1902925 0.55548954
0.91868043 0.78899688 0.00048425386
2.307725 -0.68462336 0.56564999
2.5046411 1.3047427 1.2645425
2.3231792 -0.77078056 0.29775658
2.236552 -0.5053978 0.073335715
2.3228993 -0.79414612 0.090175658
0.56629747 -0.48144084 0.048334073
0.60162985 0.038012579 -0.0077741016
2.2700579 -0.62922287 0.55832893
2.2717552 -0.60775387 0.55804282
1.1316857 0.71178538 0.13797121
2.2866423 -0.58977258 0.55991143
8.7036533 1.7318983 -0.12658495
0.96274865 0.68541086 0.021575024
1.1749775 0.70163357 -0.021227464
2.3936832 -0.50408804 0.57484365
1.257409 -0.72498012 0.090017408
0.57986796 -0.1638172 -0.0054026246
2.553931 -0.466524 0.59940535
1.2959783 -1.0216267 0.45436338
2.440855 -1.1425827 1.109442
1.3281494 -1.0253029 0.45892021
0.463449 -0.10053772 -0.0025552807
2.2582953 -0.49262106 0.45195937
2.3003497 -0.53098673 0.62355363
1.611033 -1.0956341 0.50302774
0.44188422 0.068841204 -0.0022786446
0.70991284 0.4832443 -0.017894104
2.3266873 -0.87503451 0.53223348
1.6431342 -1.0938659 0.50730473
2.3069913 -0.70636654 0.84661716
0.40845597 0.4761453 -0.008396768
0.98043501 0.81613868 0.22075762
2.2874298 -0.56920111 0.58034337
0.4366419 0.2399545 -0.004506377
2.351912 -0.98371142 0.53982818
2.3510289 -0.64975506 0.85603893
2.4083955 -0.8942647 0.95485979
2.4584923 1.5745058 1.1509669
2.4293959 -1.0113103 1.1687639
0.92400861 0.7705946 0.14694314
0.51797932 -0.0020205511 -0.0047176424
2.3805079 -0.91239685 0.97167712
0.71963394 0.27979475 -0.01762454
1.4315792 -1.0225902 0.51643109
0.36063752 -0.22140385 0.00087390275
0.94621658 0.69309366 0.17677523
2.270287 -0.49680647 1.0744694
2.3928628 -1.2725463 0.55926466
0.65126777 0.0084496941 -0.010484747
2.4001491 -1.1231778 0.17575449
1.1462457 0.50241494 -0.029917661
2.3861783 1.8574035 0.7334159
1.2822424 -0.69704044 0.6987257
0.39837989 0.51028425 -0.006287578
0.64709795 -0.16798319 -0.0088637527
2.4175353 -1.1336126 0.35322538
0.44493964 -0.25748348 -0.00093664363
2.3480313 -1.0357767 0.83202678
2.4070389 -1.2403318 0.93513429
0.54870725 0.2980397 -0.010913823
1.6001817 -1.2242674 0.71646202
2.4715176 -1.2619087 0.87956041
0.46098921 0.28949183 -0.0045087365
2.3327692 -0.84648186 0.38353571
2.0078812 1.4732695 0.52800304
1.1645063 0.68946856 0.14846607
2.3311126 -0.81940365 0.17349352
2.4501004 -1.1209421 0.33212495
2.4754274 1.5921376 1.2449621
2.3477056 -0.79274547 0.88469785
0.3796958 -0.15105097 0.0017373732
2.3178799 -0.81469989 0.21513399
2.4869931 1.2829458 1.0079353
0.55774301 0.25778821 -0.0092926491
0.61836326 0.30211803 -0.012875323
2.4126041 -1.0969933 1.2234015
2.4100091 -1.2127801 0.93326181
1.4304744 -0.93450475 0.70120418
1.5123481 -0.98071778 0.6971119
2.2987723 -0.60708994 0.77467763
0.97073787 -0.47698027 -0.014052817
2.4156814 -1.2196333 0.95984071
2.3770728 -1.0867977 0.11038631
2.3514907 -0.58100808 0.85360736
2.4303675 -1.1653044 0.28761822
0.51918447 -0.27103308 -0.0023262289
2.3212972 -0.59144443 1.0273095
2.4802918 1.5630611 1.2415166
0.47916156 0.081769258 -0.003928612
2.3011281 -0.60597545 0.75356901
2.2773621 -0.62160045 0.1523125
0.93644339 0.71332407 0.12631169
1.0527641 1.1631373 -0.019636722
1.074942 0.84718788 0.22231616
0.91692674 0.7610411 -0.018387198
2.3659258 -0.97259736 0.65138024
1.5559337 -1.1245961 0.72692692
2.4067953 -1.1846656 0.73998338
2.3093624 -0.67476904 0.17255858
2.4652786 -1.2796199 0.5452792
0.60870016 -0.37716785 -0.0026430839
2.3926649 -1.0414915 0.93757939
2.2814512 -0.65453911 0.56076419
2.3340693 -0.53630322 1.1241764
2.3370228 -1.0402296 0.89884084
0.81212449 0.47848114 -0.014963718
2.3484313 -0.77862364 0.25688809
2.3457994 -0.79468697 0.90714937
2.2938991 -0.50621885 0.90160954
2.2839785 -0.61293292 0.88032734
2.3473496 -0.74943668 1.1168109
0.68482774 0.56363016 -0.020551581
0.30323064 0.45940408 -0.0032975776
0.37953332 0.63213825 -0.006417423
0.93172759 0.73566544 0.14676821
2.3799102 -1.0170548 0.4788883
0.3291851 0.12147825 0.0018299932
2.3254693 -0.68270481 1.0099728
0.91073024 0.87933403 0.10399017
1.1518335 -0.95310545 0.4661139
0.63171744 -0.41203892 -0.0051237708
2.4442935 1.3540289 1.140674
2.3095927 -0.54834545 0.84108299
2.3422518 -0.8980934 0.3855148
2.3661442 -0.64098197 1.1662073
2.2609701 -0.5825519 0.85064095
1.305617 -0.74791569 0.44604808
1.3207443 -0.36706147 -0.032341305
1.1294236 0.7106536 0.12641264
2.2743435 -0.51420736 0.33264944
2.4937842 1.3753513 1.0485722
1.2280089 0.21073131 -0.032611411
0.67095876 0.30451024 -0.013941114
2.404635 -0.99667525 1.1331387
0.31779301 0.19901094 0.00035093346
2.4024949 -0.99251378 0.93644202
0.37965924 0.22995208 -0.0049294187
2.392298 -1.2410485 0.98015928
0.9456141 0.68000466 0.16660175
2.3837748 -1.012017 0.10977941
1.5770575 -1.1645517 0.73759371
0.39002389 0.55645645 -0.0069900881
1.2894449 -0.74057674 0.18487403
2.3426754 -0.89517432 0.21625191
2.4584796 1.274613 1.1334952
1.1425984 -0.70658559 0.6933195
2.3873515 -0.78360629 1.1094416
0.37849832 0.02064725 0.00015294361
1.6564054 -1.2450074 0.74996668
2.3936169 -1.0376431 1.0833569
1.6419854 -1.1573751 0.7348327
0.64342827 0.3139683 -0.014271489
0.54911953 -0.47717756 0.0093612075
2.3291664 -0.8158946 0.92655611
2.333982 -0.72177619 0.92256016
2.3633544 -0.97856063 0.08892002
1.5317082 -0.97166187 0.70087624
0.67968154 0.16193168 -0.012678768
1.1399331 -0.95854825 0.44043279
2.3945494 -0.99253261 0.95806408
2.4266393 1.4633523 1.1520126
2.2773225 -0.51405424 0.11146406
0.65826297 -0.21983641 -0.0073266928
2.438699 -1.2256233 0.31184131
2.2871656 -0.57113159 0.90177941
16.091248 -11.512951 2.0518336
2.3857727 -0.82301223 1.2115762
1.0005065 0.68834633 -0.027151674
0.9196443 0.78805691 0.021613445
2.2903047 -0.52748066 0.90119284
2.348372 -0.95450419 0.4948768
0.49048465 0.01142785 -0.0047118207
2.3568079 -0.90084869 0.25887349
2.3946126 -1.1002655 0.96716774
1.1612515 0.70053333 0.27910352
1.4474149 -0.96653837 0.71007484
0.49976918 -0.32024449 -0.0007013632
1.2794534 0.2672759 -0.03148577
1.4178531 -0.90606725 0.69402552
1.2987934 -0.71374869 0.19655061
1.7443838 -1.1408546 0.70253628
2.2708406 -0.55579966 0.31280062
0.39904195 -0.259565 0.0019131958
1.4088398 -0.88057673 0.68825918
0.53194797 0.27054706 -0.0084856637
2.339227 -0.94084424 0.9149189
2.2815778 -0.62259692 0.19270244
1.3364537 -0.76342845 0.65383989
0.90458095 0.90248996 0.16875133
0.44587192 0.28637096 -0.0042372369
2.3654718 -0.80832982 1.1524009
1.0828774 0.69348741 0.20750281
2.3338761 -0.79884082 0.04782306
0.37768203 -0.21002096 0.0036381157
1.3933027 -1.0335288 0.48263359
2.3262823 -0.79466015 0.1316978
1.057268 0.48710525 -0.035195727
2.3737125 -1.0672199 0.98228633
0.99974221 -0.16661206 -0.022837384
2.3538597 -0.85145086 0.25804719
0.88111442 -0.010396722 -0.014527195
2.2392099 -0.69836044 0.27325171
1.1433059 0.70803672 0.042948961
0.47977743 0.088856705 -0.004680506
2.3503277 -0.94227582 0.89493781
2.3664851 -0.95440805 0.11013598
0.51011157 -0.069558203 -0.0059628366
2.2548201 -0.4874849 0.17188177
0.63233352 0.48445427 -0.015091173
2.2585127 -0.50645095 0.71949452
2.3899271 -0.99404031 0.98079091
2.3489769 -0.7857793 1.0240033
2.3243494 -0.80823362 0.61504412
0.29853234 0.29135641 0.0018958264
2.2885668 -0.6036132 0.31429049
1.651052 -1.1699506 0.65096343
0.94722182 0.7068755 0.17686081
0.92243761 0.80183172 0.06285733
0.40493581 0.50360006 -0.0067091538
2.3043113 -0.71174598 0.65066409
2.3678181 -0.91078269 0.99145567
2.3063681 -0.64897317 0.7131086
1.3151267 -0.74591619 0.61848271
1.1664065 -0.44206718 -0.018710466
0.92405641 0.69908893 -0.014936738
2.2595267 -0.55834627 0.49375027
0.47481307 0.32276753 -0.0083343135
2.3855495 -1.0947152 0.75265962
2.3000205 -0.70753348 0.60729229
2.3214056 -0.79184246 0.9456951
2.4442396 -1.1934724 1.2202456
1.3374877 -0.76842111 0.58561301
0.65153396 0.80088639 -0.015347829
2.3747258 -0.71298987 0.95749396
2.4223757 -1.2458762 0.087044597
2.3251479 -0.80562764 0.57222265
2.3213792 -0.63708025 0.41991076
2.2830572 -0.63977432 0.92569649
2.2705135 -0.50635403 0.6801281
0.43273172 0.052689377 -0.0018791457
0.91356868 0.88045168 0.13610581
2.280328 -0.61640245 0.92379868
2.296829 -0.53104508 0.92560548
2.4566402 -1.4840291 0.48468119
0.67368758 -0.049921427 -0.0099039013
1.3255963 -0.73486024 0.62001222
2.2647994 -0.51460427 0.4327836
0.42794114 0.30156031 -0.0056280396
2.3607349 -0.95456588 0.38835937
0.76183259 0.10921444 -0.01146268
2.409224 -1.1831752 0.71708
0.9068591 0.92197382 0.14695993
0.98551083 0.68240541 0.16545042
2.3332291 -0.78485405 0.57271636
2.3949399 -1.1610137 0.55356961
2.5627391 1.3258443 1.1166415
0.91642916 0.82285655 0.11546506
0.54080939 0.47925693 -0.012758884
0.54961133 -0.23737852 -0.0044003567
0.94708067 0.9107967 0.20089453
0.51990581 0.43252313 -0.0073550083
2.4303946 -1.1404096 0.37650165
2.4277503 -1.1517092 1.0306994
2.2899392 -0.55570954 0.70664859
2.3724663 -0.88677311 0.43045384
0.57557118 0.079330862 -0.0067676813
0.43040991 0.49880835 -0.0064112805
2.3383453 -0.92548329 1.1522222
0.36442906 0.51296079 -0.0040555489
1.138181 0.68789017 0.13779202
2.3191555 -0.73253757 0.54766989
2.4376328 1.3244028 1.18906
1.2842644 -0.73756266 0.19700697
0.53247666 -0.11264956 -0.0042871875
2.3321633 -0.89136475 0.1531269
1.3668007 -1.0332308 0.46473539
0.43606374 0.39902362 -0.0082324864
1.024248 0.68842244 0.012874363
4.055737 -3.0951557 1.7447885
2.4590771 1.3716491 0.69855392
2.2962596 -0.69415504 0.091057822
0.87695485 0.109697 -0.016520765
2.3945405 -1.1140329 0.64136851
2.4171381 -1.1542307 0.67033869
4.1935139 -3.3004682 1.671894
1.0133325 0.82843345 0.21010096
2.3704898 -0.86123043 0.98868316
0.58381826 0.14789028 -0.0079078302
0.93084115 0.76231146 0.14667934
0.44650346 -0.2643823 -0.0022829811
0.50027525 -0.12415772 -0.0029462615
0.90771049 0.88517517 -0.0047489936
2.3580377 -0.69091737 0.36105427
1.4166126 -1.0896037 0.58062232
2.281487 -0.66456658 0.94886339
2.3275406 -0.79616523 0.069103301
2.3271029 -0.76866567 0.70043874
2.3643262 -0.66504771 0.97518677
2.2946029 -0.59995025 0.95001966
2.443867 1.3936663 0.74910504
1.22946 -0.99887526 0.49580786
1.7148541 -1.1598155 0.47108904
1.7523026 -1.1285189 0.73939663
2.277005 -0.50654888 0.94086397
2.3707256 -0.50456607 0.97098339
2.4061022 -1.1802657 0.19851856
2.2743325 -0.58130473 0.43485963
0.65006161 0.46139938 -0.016822489
1.3452055 -0.73126131 0.63864273
2.3517168 -1.0084677 0.80807751
0.55850893 0.48041344 -0.010642479
0.56851614 -0.13024732 -0.0064160316
2.3611696 -0.80616266 0.19417621
0.86111319 -0.33980253 -0.012500636
2.2841814 -0.85668749 0.48408031
2.3440759 -0.90733612 0.55734223
0.60855877 -0.091661163 -0.0078780865
0.56457722 0.061763149 -0.0078271544
2.3297648 -1.0699641 0.43258688
0.50931364 0.69679767 -0.0084118014
0.61251849 -0.040703978 -0.0094172256
1.2249414 0.72413266 0.24585833
0.41239807 -0.12097502 0.00029494253
2.3309565 -0.50510281 1.0506773
0.7806614 0.18572976 -0.012338671
2.2658429 -0.57585835 0.092043653
0.50687939 -0.011721769 -0.0053853057
2.2838817 -0.57067239 0.62148923
0.46641403 0.42872038 -0.010432557
2.6523759 1.2823752 1.1659393
0.97045231 0.69375771 -0.022405207
0.42761818 0.019116893 -0.0023176826
1.1406939 -0.68953902 0.6900394
1.8396804 -1.1086081 0.60878354
0.88603878 0.037853554 -0.016622994
0.93414587 0.699274 0.10639369
1.6315711 -1.2004592 0.73809081
0.99209619 -0.19264412 -0.012187234
0.96975589 0.68363059 0.26885504
0.39865434 -0.029921703 0.00091551541
2.2783828 -0.60730916 0.83463132
0.32195926 0.32007417 -0.00043522636
2.2917705 -0.51246977 0.70593828
0.49149382 0.020697929 -0.0054710964
0.4840762 0.69161242 -0.010147362
2.3374341 -0.70988929 1.0154976
0.91803169 0.79612386 0.094983466
0.42747647 0.089649804 -0.0024030635
2.2669039 -0.53642362 0.43333867
4.2287374 -3.1899955 1.6647558
0.62374425 0.45205203 -0.016557384
2.2692883 -0.6855253 0.27404556
2.3087633 -0.65244955 0.25438887
1.4174725 -0.95024788 0.71523482
2.3993039 -1.0626845 0.63929391
0.57002401 -0.092139244 -0.0064471057
2.4359434 1.8349305 1.276832
2.2863264 -0.52458602 0.87780452
0.53353029 -0.021729991 -0.0047803256
2.2992251 -0.77930504 0.65229249
2.4491017 -1.0811735 1.0554354
2.3678381 -0.87021774 1.0602584
1.156189 -0.98437929 0.50771272
0.91080844 0.87881941 0.11476438
2.2879519 -0.58906549 0.53935289
2.3184807 -0.86215889 0.23655139
1.3167645 -0.75584114 0.4612031
0.48507294 0.25643668 -0.0082413089
2.3500819 -0.83215922 1.003863
0.78321767 0.51120019 -0.02019647
2.2923994 -0.50634772 0.60066932
2.3841488 -1.063813 0.11001574
2.3303266 -0.69475216 0.89739543
1.3011681 -1.0378425 0.38878977
2.3892691 -1.2726477 0.58161467
2.3453593 -0.73135215 1.1636547
2.3865168 -0.98699862 0.23932543
2.3354423 -0.75414199 0.99407125
1.3107213 -0.75309235 0.16004822
2.4035897 -1.100693 0.94557178
8.6161995 1.7148818 -0.20160314
0.30118239 0.25086516 0.0019904021
0.91112268 0.71637005 -0.024366125
2.3937559 -1.1587615 0.53082722
2.5329297 1.3385804 1.0819687
0.28063655 0.30600813 0.00084900076
0.90796137 0.91693747 0.004016167
2.3183165 -0.81482393 0.72248405
0.44371378 0.42438036 -0.0090769306
2.4225273 -1.1251688 1.0514075
0.91772223 0.8230933 0.13644567
2.3258142 -0.91296703 0.2373776
0.9697029 0.64242619 -0.029194912
2.4714952 1.33956 1.1468788
2.3861415 -0.73715776 1.1304564
0.59078902 -0.48048964 0.0053355158
2.4312015 -1.1696978 0.95928329
0.68938804 -0.14104304 -0.0080719767
0.51857513 -0.25806519 -0.0010731914
1.315951 -0.7262311 0.68530393
2.4178619 -1.1958708 0.98268193
0.87583488 -0.53917825 0.0011918645
2.411484 -1.0661333 0.61878097
2.2674112 -0.59520185 0.96351546
0.99005991 0.68976527 0.049526285
1.6295719 -1.1003484 0.44086531
1.3703767 -0.84763408 0.71769661
2.3899345 -1.0735041 0.48210263
2.2849209 -0.52235842 0.85536742
0.38841927 -0.31797242 0.0067138351
2.435658 -1.1671079 0.22060373
0.97540355 -0.56101781 -0.008978284
0.93736619 0.69973385 0.1669127
2.4186916 -1.1883414 0.93324566
2.4068604 -0.86990988 1.1478482
2.3065698 -0.67390144 0.19307834
2.4429877 -1.1677682 1.0873238
2.3177407 -0.77069509 0.028014023
1.1849283 0.70209396 0.12356504
2.4743676 -1.2715046 0.26838514
1.0642807 0.5252502 -0.027938902
0.66642874 -0.4509652 -0.0033579753
0.38823709 0.10907299 -0.00027182602
2.3225276 -0.77997088 0.54965281
2.3734903 -0.93116075 1.1161126
2.3722193 -0.89729309 1.0638641
1.0485665 -0.27349395 -0.02442183
2.2876186 -0.58082485 0.2531186
2.2885256 -0.59384549 0.9030686
0.98847389 0.83796859 0.21030618
0.61178452 -0.21844889 -0.0058042193
2.3879092 -0.97041553 1.002308
0.9223519 0.8004567 0.083999969
2.2740855 -0.63010746 1.0587646
2.3928194 -1.0668085 0.21886832
2.5074649 1.3279091 1.1284676
2.4024928 -1.131672 0.97225416
0.40525413 -0.3077231 0.0022220309
0.40450388 0.33613116 -0.0034668182
0.62418824 0.36341399 -0.01395919
2.2845685 -0.57982409 0.19236852
2.3706291 -0.88645953 0.99052352
0 0 0.19176
0.43460062 -0.13066281 -0.00083759136
0.54897314 -0.14257146 -0.0054585151
2.3900616 -0.96782953 0.97873336
1.3057698 -0.75462902 0.68579412
2.3895805 -1.0761055 0.52652454
0.8895157 0.90480638 0.13710195
0.36896902 -0.20141891 0.0041781571
0.3614679 0.40669611 -0.0032354495
2.3823342 -0.92655987 0.87920451
0.39141309 -0.1807812 0.00091539719
2.3909292 -1.1065826 0.57278126
2.4054933 -0.91225249 1.2531211
1.2975427 -0.76716661 0.68494803
2.4319527 -1.2799921 0.3357448
0.4397504 -0.10082959 -0.0019649975
2.3642564 -0.61361462 1.139478
1.2996056 -1.0152295 0.52260464
0.38373476 -0.11043917 0.0010944876
2.2864842 -0.53028113 0.66295892
1.1362718 -0.49121553 -0.01468402
0.39276475 0.13918273 -0.0014771429
1.1286159 0.69590569 0.13818178
0.79429507 -0.5255968 -0.0071682152
2.4025221 -1.1137654 0.59729087
2.3202198 -0.82895726 0.85667688
2.299685 -0.6454972 0.69014001
1.2875218 -0.71867806 -0.02245946
1.1265746 0.69364256 0.19607878
1.4915047 -1.0583647 0.48362046
2.3222876 -0.73238003 0.52696818
0.40803507 0.20820609 -0.0035900888
1.2729479 -0.89878207 0.69657576
0.47719967 0.22213301 -0.0065771299
0.9594692 0.67732221 0.15600303
1.3252947 -0.74554366 0.67650199
0.72055274 0.37504673 -0.018156227
0.50665486 0.43843564 -0.010909836
1.3878338 -0.81407005 0.68881488
2.2836325 -0.61586791 0.64364004
1.0178297 0.69371849 0.089420289
0.9793641 0.68408209 0.019345555
0.59231931 -0.34840193 -0.0020405499
1.1396271 -0.76711065 0.68906534
0.75568491 0.50372106 -0.022002906
2.3005481 -0.58671731 0.39653152
1.3273962 -0.74331802 0.56724185
1.3012978 -0.68800861 0.68994105
0.94868618 0.2620306 -0.0212745
2.4224067 -1.1821809 1.057182
0.68309128 0.10415049 -0.010573738
1.1689311 -0.75259566 0.69637978
1.0766084 0.70332676 0.18527813
1.300123 -0.73075676 0.23346546
1.316216 -0.72672015 0.32034659
0.40067998 0.64292121 -0.006222208
2.4191337 -1.2539477 0.5157091
2.3856025 -0.96639413 1.1485775
2.319762 -0.6707738 0.91578251
2.262511 -0.59590125 0.15244046
1.3250936 -0.7395795 0.42278862
2.4397118 -1.261593 0.77575761
1.0408019 0.66738296 0.1530209
2.3020117 -0.55676842 0.95065552
2.5340576 1.4343519 1.1800983
2.2793751 -0.64365107 0.96971351
2.4558744 -1.1643201 1.19458
2.2566788 -0.55948621 0.84859532
2.5009315 -1.2103264 1.1891347
1.325519 -0.72933352 0.13458988
2.2611885 -0.71541816 0.5594604
0.49056157 -0.046305932 -0.0034453364
0.85936385 0.95348054 -0.01407637
2.4132566 -1.2209102 0.49077818
2.3329754 -0.69795221 0.92104238
2.4592199 1.3973989 1.235666
0.80557746 0.0046657729 -0.012162031
0.70076883 -0.080747455 -0.01111661
0.24535064 0.36442295 0.0059428699
0.48660389 -0.21915497 -0.002692495
2.2883523 -0.58080149 0.21262102
2.244601 -0.63572419 0.05322757
2.5011899 1.3839262 1.1345737
0.35045472 -0.22273059 0.00091554335
1.1294842 -0.042396381 -0.02029771
0.34098583 0.4836233 -0.0030892254
2.3007185 -0.5789417 0.95110351
1.3333228 -0.74717355 0.66502762
0.54801977 0.42280343 -0.013655762
2.3822622 -0.81039405 1.1341277
1.0231223 0.52856952 -0.031318832
0.36991417 -0.28926638 0.0019648224
0.35670286 0.33808896 -0.0025740589
1.3136134 -0.75320011 0.66009182
2.3429146 -0.91963905 0.17428319
0.48709163 -0.090298735 -0.0021638758
0.59847564 0.071303651 -0.0081398794
1.2777381 -1.0192915 0.51935619
2.3600545 -0.85363162 0.15229528
1.5896146 -0.96809131 0.73191637
2.270571 -0.63202071 1.0808144
0.30922386 0.29783937 0.00053227035
0.44148099 0.52008706 -0.0067439424
0.40050074 -0.17880608 7.8102377e-05
2.3970199 -1.1217893 0.24170244
0.38959733 0.31014493 -0.0037996164
2.3185422 -0.61917353 1.0745034
0.95931321 0.87436551 0.18906201
1.0657301 -0.52045357 -0.0035638302
2.3497846 -0.82061356 1.0985713
2.4893892 1.2853682 1.0357068
2.3467193 -0.81928509 0.90887237
2.3712566 -0.90726542 0.088354461
0.49404082 -0.067790262 -0.0047564222
1.1812012 0.71417832 0.12366078
0.4841699 0.54109496 -0.0077514895
1.0096089 0.68505585 0.23897882
0.3595981 0.1303739 0.00022176118
2.5253663 -0.46034601 0.57206482
2.2998526 -0.629812 0.77574766
2.2891335 -0.56849808 1.084599
1.1652977 0.70293552 0.26746887
1.010868 -0.1124864 -0.025248675
1.50603 -1.0925879 0.72675723
1.3145007 -0.70868546 0.68271494
2.4218628 -1.1937965 0.95901436
0.47660244 0.040176786 -0.0053598201
0.64191633 -0.20849209 -0.0084418049
0.79609424 -0.57069343 0.0058780592
2.2999959 -0.69997203 0.80041271
0.38042027 0.52808344 -0.0052128714
2.5694423 1.3671584 1.26761
1.4187546 -1.0625869 0.54800284
2.3770485 -1.0048319 0.67738384
0.83759028 0.066189483 -0.013876962
1.981565 -1.2281975 0.48744914
1.5992849 -1.1110305 0.50269997
2.3884106 -0.96383065 0.95407403
0.56770366 -0.29999226 -0.0030439238
2.3656876 -0.94268191 0.85284531
2.3484712 -0.9601751 0.58193457
1.2720052 -1.0174786 0.53181291
2.490449 -1.1377956 1.2843674
2.3141716 -0.75533235 0.85097718
0.60797709 -0.47405717 0.0018397559
0.46070307 -0.3824456 0.0040511983
0.50852811 0.18095988 -0.0078562442
2.2789464 -0.62613338 0.43617365
2.4152367 -1.2087713 1.2116972
2.3917017 -1.1465683 0.13214843
0.79965478 0.011917779 -0.010811747
2.3247464 -0.77951056 0.52872205
1.1715708 -0.7375561 0.6949119
2.3996303 -1.0715493 0.94199073
1.0078319 -0.047851909 -0.025055898
0.49511957 -0.10872816 -0.0056502763
2.498554 1.3483996 1.0463197
0.91056478 0.84204841 -0.012875138
2.380739 -1.0889504 0.088463269
2.2376173 -0.53357524 1.0635209
0.67297751 0.92585868 -0.014289111
0.49054307 -0.11256596 -0.0039347871
2.3751163 -1.0869538 0.066943496
1.3135418 -0.74307591 0.34582284
1.5230973 -1.0703659 0.5668509
2.3894236 -1.2024539 0.044106003
2.3430173 -0.82460988 0.089368202
2.4626491 1.7941375 1.3678499
2.359355 -0.87854201 0.3223331
2.378969 -1.0101352 0.3044689
0.52844113 0.14988182 -0.0065702801
1.2779374 -0.23385282 -0.024290616
1.8244278 -1.110787 0.67971224
2.2843769 -0.62337577 0.21295905
1.1557397 0.69764489 0.18419459
0.51735312 0.30032536 -0.0074209883
2.4142859 -0.86806166 0.93107939
1.8452644 -1.1020296 0.70186937
2.3850057 -0.98892093 0.3693229
2.3903546 -0.99777484 1.0053176
0.80806696 0.071127065 -0.01448693
0.5382731 0.1180297 -0.0075565246
2.3211591 -1.0595109 0.8962217
2.3007164 -0.62966526 1.1879785
2.5540152 1.5083148 1.1974527
0.39056069 -0.28071043 0.0021915182
0.90242386 0.89094192 0.05023412
0.78279555 -0.26149476 -0.0073697343
2.3703558 -0.93113601 0.10988654
0.92648864 0.6871112 -0.0041915746
0.85762572 0.14708708 -0.01337311
1.1474193 -0.72578835 0.69798297
0.44041318 0.12999743 -0.002236052
2.4024715 -1.1704333 0.62311214
2.2797008 -0.57179016 1.1282009
1.1411858 0.10157017 -0.024883658
0.93048614 0.76170772 0.15702792
0.58351791 0.32650363 -0.01196365
2.4857888 -1.1200223 1.2002511
0.49177891 -0.1325094 -0.0049905553
0.48108545 0.51913869 -0.010100992
2.4768333 1.4113915 1.3011531
0.47635481 -0.29776418 -0.001264967
2.2958465 -0.59796906 0.92781627
2.4157131 -0.88110715 1.2027748
0.48902291 0.16143173 -0.0041925246
1.1236057 0.70546049 0.2194131
0.49136171 -0.13987267 -0.0050896634
2.3627572 -0.48813531 0.78701472
1.2308294 -0.6910255 0.70804662
2.3995316 -1.1143092 0.61950237
0.54952049 0.3316389 -0.0089649186
0.56422716 -0.32314268 -0.0038610026
0.96930361 0.68827218 0.051971376
2.2846785 -0.60820228 0.49801284
2.3373356 -0.7336933 1.0168549
1.2701974 0.25344017 -0.029515089
2.319366 -0.75039619 0.78549999
2.2775187 -0.58448875 0.49659064
2.3581924 -0.75991291 1.1707166
2.4130695 -0.85418284 1.199465
0.5822565 -0.46528992 0.0024354632
0.27120376 0.23977451 0.0057339179
0.52298307 -0.031411007 -0.0059673614
0.49143514 0.11025342 -0.0057524173
2.3306665 -0.68117952 0.25524181
0.68186361 0.54067332 -0.01742745
2.491616 1.6328329 1.2278212
2.523752 1.9415907 1.3549461
2.2913835 -0.49668804 0.79114586
2.3522515 -1.0144054 0.85449082
1.0592597 0.69155538 0.26253819
2.3289731 -0.56695408 1.1963741
2.2703245 -0.54333311 0.57695156
1.1261952 0.079788834 -0.021592725
2.3784413 -1.0193082 1.003531
1.0013927 -0.29049283 -0.015111361
2.4349134 -1.1676754 0.93562293
0.77311575 -0.16019885 -0.010362335
2.3903525 -1.07135 0.43790174
0.39368561 0.18083255 -0.003001374
2.5202472 1.3145815 1.3002864
0.44370759 0.259855 -0.0048194174
1.093271 -0.14081544 -0.02285305
2.3815181 -1.115306 0.11036495
2.4079828 -1.2702698 0.93832856
0.55479014 0.29147378 -0.012034054
2.373806 -0.96880007 0.83357126
0.37903708 -0.058640357 0.0007238806
2.3833628 -0.75058782 1.230334
1.3414605 -0.69544113 0.71792144
2.29656 -0.54500157 1.06299
0.92140424 0.25462037 -0.024070485
0.27359238 0.31034607 0.0024101166
2.1077151 1.3596179 0.73336273
0.98994797 0.68466049 0.24892767
2.4182677 -1.2148668 0.28842545
1.23541 -0.91083032 0.68766248
0.68814063 0.1506592 -0.014444477
0.92647946 0.78592026 0.17796788
2.4311595 -0.85660148 1.1811129
2.285753 -0.50600731 0.62035149
0.64682519 0.18594691 -0.011340796
2.2432768 -0.50115389 0.95188785
2.3346128 -0.82077438 0.15254594
2.2952137 -0.54214132 1.0391761
0.49783364 0.30511376 -0.0076297778
2.2794936 -0.53135628 0.96493226
2.4950464 -1.1106293 1.2829651
0.84049797 -0.45625609 -0.012880491
2.2919135 -0.52574891 0.55934805
2.4055347 -1.256744 0.62879336
4.0558934 -3.1492097 1.7075187
1.0166713 0.68984598 0.25000086
0.52483338 0.094727032 -0.0065773306
1.1592422 0.69961107 0.19600499
2.2800059 -0.56900233 1.1045862
2.3015487 -0.66552353 0.64856791
2.4212885 -1.0805781 0.30764106
0.5339092 0.10669214 -0.0052141631
0.40688863 0.010011926 -0.0013111128
0.31903943 0.36753994 -0.0010479776
2.2975543 -0.49679035 0.23231706
0.33460954 -0.14972594 0.005911631
0.4769108 0.11173576 -0.005343853
0.31716847 0.45833376 -0.0016997441
1.0494924 0.54169291 -0.026267121
2.3472898 -0.68687516 0.31838658
0.40169078 0.10862023 -0.0019321641
1.3662134 -0.79837149 0.6662789
2.4519014 -1.2884576 0.22269852
2.3301089 -0.71544164 0.59130579
2.3715594 -0.96521449 0.80984008
0.95900422 0.69288677 0.073692732
2.3501315 -0.61611438 1.1830529
0.80191219 0.37120342 -0.021373628
0.6065895 0.3173416 -0.011068879
1.3268714 -0.73317307 0.50010818
0.92766106 0.7912249 0.073298544
2.3913743 -0.89102155 0.97340673
0.8156963 0.1398506 -0.018947011
0.67527854 0.39207482 -0.015942296
1.3315755 -0.7319473 0.67671883
2.2987373 -0.55825067 0.97230113
1.5847528 -1.1032255 0.51613033
0.38931823 0.46863189 -0.0074798362
2.402812 -1.1801332 0.087735355
2.3939152 -0.91437191 0.95203865
2.2748194 -0.57101095 0.6616618
2.3482304 -0.93368578 1.1816294
0.92884797 0.84682578 0.17845754
2.2707102 -0.55521959 0.2725538
0.54688734 0.20837241 -0.0067827329
1.7585088 -1.1288285 0.72254187
0.37726817 0.24542256 -0.0019833979
1.3490729 -1.0354725 0.42079091
1.2782756 -0.71231329 -0.0086160945
2.4451423 -1.1458948 0.33254847
2.3060937 -0.7694872 0.78322083
0.55009693 -0.45055854 0.0057078344
2.4032633 -1.1581275 1.1241461
0.353221 -0.18805647 0.0017515944
0.88124621 0.89487606 0.18001044
0.34360889 0.45073208 -0.0020816459
1.592137 -1.0667969 0.54622483
2.3255866 -0.61827081 1.053459
0.77790046 -0.038350608 -0.011771757
2.3569746 -0.85680598 0.42822608
2.2530212 -0.55515128 0.45238885
0.530451 -0.3868331 -0.00017196218
2.299902 -0.71940374 0.37830439
1.1623679 -0.98696661 0.49642861
1.300925 -0.72169912 0.025165221
0.9711107 0.68452394 0.25862548
0.47787184 -0.011594607 -0.00387046
0.47332132 0.61513156 -0.010190992
2.3503869 -0.91992605 0.91653252
2.3793874 -1.0297076 0.65670538
8.7476072 1.5800552 -0.28614712
2.3222733 -0.7738421 0.99103522
2.2853651 -0.71869802 0.48011672
1.5675973 -1.1591653 0.63332105
2.4033349 -0.67540586 1.1829239
0.41094917 -0.0095723197 -0.0025094054
0.43901071 0.44709918 -0.0057553882
0.5042206 -0.1896286 -0.0020241167
2.293973 -0.68306094 0.60547173
0.72404683 -0.14071339 -0.011142982
0.32762569 -0.009651741 0.0075203106
2.3584659 -0.78108752 1.1476812
0.96069193 0.69031399 0.19692644
0.29646942 0.43681401 -0.00096642692
1.3038435 -1.0213058 0.53786802
1.0186629 0.67962426 0.13249098
0.37879792 0.34696835 -0.0019566035
2.3019438 -0.51078767 0.644476
0.93992913 1.1411264 -0.016597509
2.4103177 -1.0813046 1.143608
2.3432808 -0.87647212 0.77536345
2.3516369 -0.92696673 0.40833807
0.45571795 -0.16944033 -0.0022965954
2.3946741 -1.1234592 0.73340064
2.2970831 -0.66282231 0.62647337
1.1504858 0.47976351 -0.029521996
1.3015985 -0.731327 0.18459021
0.50105524 0.238236 -0.0059813261
2.4063249 -1.1767765 0.66992307
1.3157918 -0.72524554 0.29542679
0.71673846 -0.32536885 -0.0076520923
0.92175263 0.86480415 0.016654588
2.3349049 -0.52803856 1.2466778
0.92480427 0.85982168 0.13572712
2.3382747 -0.76105773 1.042447
2.345953 -0.6012159 1.2552779
2.4579093 -1.1501489 0.94013453
2.2846866 -0.49518436 0.3330521
2.3111212 -0.52088785 1.0209137
1.0436754 0.69514036 0.18562284
1.8618705 -1.1416727 0.57847232
2.4237845 -1.170073 0.98183835
0.36690441 -0.13806279 0.0032365075
2.3147528 -0.8119207 1.1092925
0.43780911 0.37868109 -0.005340979
2.357491 -0.68008536 1.1162082
2.3142498 -0.74811512 0.42158645
2.2888057 -0.64957118 0.3966257
2.2887342 -0.61640042 0.9040603
1.3789144 -0.83057255 0.70309752
1.0242641 -0.17973295 -0.018716626
2.4057665 -1.1342664 0.48621619
1.2663844 -1.0027159 0.47536457
0.32914278 0.14933985 0.0014134682
0.43315518 0.2787571 -0.0038725119
0.96829736 0.68250895 0.24813612
1.3272629 -0.7351836 0.51344258
0.44369057 0.17772888 -0.0039907112
2.3166211 -0.76628166 0.94268584
2.3048134 -0.66886127 0.93378717
0.41715476 0.69489479 -0.004859556
0.56664944 -0.022462163 -0.0057172393
1.0267736 0.68347085 0.22863363
1.2200552 0.075384833 -0.039147977
2.4097772 -1.182631 0.13189669
2.2787659 -0.61137336 1.0827888
1.1750143 -0.69095373 0.68907851
8.6082659 1.6330831 -0.044963598
1.3291116 -0.74886817 0.59517449
2.3875062 -1.0687938 0.75133193
2.3404653 -0.59645653 1.2275428
0.89455026 0.070986718 -0.011071783
2.3433392 -0.99072081 0.89662498
0.32022884 0.48086831 -0.0024077711
0.41844389 -0.32844797 0.0043496243
0.40715566 0.29913446 -0.003071961
8.6543846 1.5625824 -0.12442044
0.62721527 -0.07048396 -0.0079113487
2.3694906 -0.74486804 0.81987691
0.55968797 -0.17007005 -0.004491433
0.67063403 -0.27639216 -0.0066371118
2.3907654 -0.71077907 1.2818602
2.4097011 -1.0076032 1.186799
0.65752 0.48421201 -0.013594192
1.1530559 -0.68122262 0.69305617
0.71897531 0.57992703 -0.021461211
2.3458853 -0.73936218 1.043685
0.95690966 0.68962193 0.11514729
0.97982097 0.69094074 0.29055834
0.3507154 0.090409599 0.00032891083
1.4047886 -0.86538488 0.71524763
1.1099482 0.69742179 0.17334336
2.3120291 -0.80550927 0.63427657
0.29029876 0.53963894 -0.0030873201
1.7879753 -1.1159995 0.69100559
2.3665142 -1.0040809 0.1533692
2.3217611 -0.72209728 0.71915436
0.64467055 0.0024270315 -0.0082875872
1.4898793 -1.0495574 0.4225378
1.2726161 -0.77622998 0.70639026
0.68627411 -0.46795139 -0.0022976496
2.3981857 -0.85718822 1.2450737
2.2895682 -0.69137728 0.15251824
1.1324873 -0.19818436 -0.030583443
0.98986751 0.68521768 0.17578326
0.3704676 0.68284088 -0.0074538295
2.2971351 -0.65494895 0.47994259
2.2748566 -0.49152291 0.76538116
2.3810735 -1.0668261 0.96037638
0.54955524 0.93948293 -0.01566438
2.3234847 -0.81864983 0.74570769
2.2887242 -0.6322735 0.51975542
2.314199 -0.72128761 0.19347808
2.2920978 -0.55007243 0.90250093
2.3455312 -0.92418861 1.1300879
0.4076685 -0.05073905 -0.00030857473
2.2674155 -0.56413585 0.87362021
1.2685455 0.24126627 -0.028882515
0.39100173 -0.30166975 0.0035618066
0.52725923 -0.039082073 -0.0074767251
2.348932 -0.55467206 1.2541281
0.95547998 0.75361192 0.17705621
1.225597 0.71473777 0.021164712
2.3394785 -0.78898889 1.068537
2.2978537 -0.65775257 0.84195954
0.4905372 -0.38045201 0.000790302
1.1382427 0.70115077 0.17277953
2.2989283 -0.49866983 0.35430712
0.48976251 0.53716844 -0.0084868707
0.9411357 0.7840209 0.1776263
0.88255841 -0.034475543 -0.014519573
2.471061 -1.1373107 1.170669
2.3285239 -0.85908365 0.63946056
2.5015578 1.5483158 0.77393633
0.9313671 0.74896121 0.14672032
0.39030305 0.039479677 -0.0015067996
2.3138909 -0.55450207 1.1170952
0.51672632 0.031854998 -0.0054437001
1.4527757 -1.0452361 0.41834569
0.76591372 0.93776715 -0.030343782
2.3579109 -0.91990864 0.8954311
2.2996528 -0.69806921 0.41912124
2.3452613 -0.86243552 0.86533123
1.1585959 -0.96621579 0.50602716
0.47325313 -0.41055232 0.0076748356
2.4194241 -1.1868309 0.22085594
0.96120071 0.68496895 0.011352538
2.2950883 -0.64840227 0.17251493
1.2815691 -0.73604679 0.20907825
2.2900057 -0.64707857 0.15222842
2.3360584 -0.53406733 1.1009206
2.0457158 1.1613646 0.4258025
2.2919519 -0.58911228 0.5192138
0.56093049 -0.25408071 -0.003473189
0.53953815 -0.18979938 -0.0039126887
1.3256384 -1.0113926 0.51265258
2.5084167 -1.2001656 1.2714533
0.5731914 -0.036063332 -0.0077772369
2.2939026 -0.50363857 0.53850955
2.2883399 -0.60393161 0.33462092
1.1862016 -0.88228118 0.69609118
2.3466575 -0.87274843 0.1527003
2.259496 -0.53077239 0.19205579
2.2994111 -0.6942293 0.1728096
2.2977717 -0.67641944 0.79883856
2.3066549 -0.66242373 0.86673248
0.45672053 0.26983377 -0.0056029521
0.30808479 0.34726658 -0.0018858818
0.91673934 0.77058852 0.033499122
2.3120794 -0.65386158 0.29558271
0.4174791 0.35270113 -0.005405244
1.1502715 0.68128699 0.13728283
2.2605548 -0.554057 0.35239154
0.61683375 0.96033359 -0.0096266903
1.0361283 -0.048866283 -0.021620438
1.3082656 -1.0007256 0.52250093
0.63145334 0.96244073 -0.012042374
0.65427709 -0.33711886 -0.0055122268
2.4010715 -1.1402408 0.59848773
2.2928877 -0.53226733 0.94683808
0.26275074 0.3798933 0.0003360424
1.535575 -1.1598129 0.62715912
2.4160392 -1.1404389 1.1520082
2.2829812 -0.54990399 0.64174265
1.066027 0.27365687 -0.036438234
2.3899157 -0.71379727 1.1303878
2.3640034 -0.74818784 1.0744421
0.56937265 -0.49306026 0.009190985
0.7169587 -0.11901476 -0.0090151532
2.2695231 -0.63471395 1.1039724
2.3901415 -1.0175673 1.1300699
2.30475 -0.63301194 0.79886776
0.74703419 -0.41700086 -0.0055577275
2.3744724 -0.91672385 1.0178808
0.92666078 0.73418134 0.085709892
1.3351558 -0.73137099 0.44942543
0.89809477 0.91671717 0.082217015
2.3660436 -0.91232163 0.80526584
2.3816254 -1.0478157 0.54647034
1.0813254 0.69456983 0.10659868
2.4244268 -1.277686 0.38066211
2.3784635 -0.9738614 1.0480231
0.39322665 0.38990992 -0.0044351467
0.40321133 -0.11893538 0.00014872148
2.3784914 1.8747643 0.389907
0.95547843 0.69085497 0.063788384
0.55038887 0.008631777 -0.0062704417
4.2600975 -3.2257061 1.7243654
0.39653146 0.069382399 -0.00023264284
2.2937415 -0.59271544 0.58193916
0.99084848 0.68572146 0.18622284
0.48609215 0.13571838 -0.0058735358
2.3095345 -0.72305095 0.39982292
0.40031305 0.13113597 -0.0015710548
1.235654 -0.70684552 0.69836622
2.4249904 -1.1557739 0.88363081
0.41775638 0.41976473 -0.006405734
0.99694943 0.50417787 -0.035168968
2.5243404 1.499384 0.74646556
1.1087915 0.68495446 0.093434468
0.7882098 0.92765296 -0.022439662
2.3891826 -1.0413215 0.34916955
0.59910542 0.32756674 -0.010023922
0.60647243 -0.3219609 -0.0040165004
1.1595304 -0.77687323 0.68405777
2.522531 1.6884928 0.76425487
1.2608351 0.35968596 -0.031446964
1.1668419 -0.74777949 0.6818682
0.72121817 0.27285162 -0.017518077
1.310923 -0.79615009 0.70707536
0.38982588 -0.21052711 0.0028058293
1.0690879 0.87416017 0.19926374
0.70702136 0.1752423 -0.014297952
0.52427942 -0.17142367 -0.0030990739
2.3126931 -0.83432406 0.92290896
2.3748734 -0.80434293 1.1064022
2.3801436 -1.1250926 0.5276165
0.41974956 0.44921169 -0.0065708905
2.3716075 -0.98154473 0.11007746
2.3139992 -0.8430202 0.46600315
0.91697556 0.8517549 0.15750225
0.27283502 0.28278953 0.001708348
0.77830791 -0.47872889 -0.0087291095
0.77261662 0.15431042 -0.0087914215
2.4041293 -0.8948009 1.1489108
2.4898627 1.5055648 1.2348992
0.44461736 0.15189189 -0.0013935383
2.3155935 -0.76858532 0.74158263
2.3240702 -0.521465 1.0023327
0.36937159 0.63673151 -0.0051706061
0.41069967 0.22907585 -0.0029652773
0.71692139 0.8311103 -0.020851072
2.2577481 -0.51893234 0.5743655
2.2937467 -0.69970661 0.50137395
2.4954231 1.317456 1.0414554
2.3133092 -0.82650435 0.59252435
2.3841722 -1.1211708 0.75419748
2.2724791 -0.5823459 0.47545162
2.3318443 -0.59675986 1.0546789
1.0998141 0.077765062 -0.026729647
1.4637066 -1.0365827 0.4631559
2.3828104 -0.94580787 1.0228366
0.92624366 0.72279257 0.04513295
1.1735293 0.19049342 -0.033275947
0.46370465 -0.0093375817 -0.0029188113
2.5059533 1.487587 0.71597868
2.3262446 -0.70037043 0.7192679
0.49028391 -0.21517371 -0.0037446101
0.47790661 0.45067322 -0.011084544
1.0110885 0.48858762 -0.036928188
0.65022278 -0.021507304 -0.0095081851
2.3723822 -0.72648931 1.0760521
1.7160171 -1.1295582 0.73098141
2.3815863 -1.1710541 0.044639524
0.50449646 0.019075831 -0.0054290625
2.268167 -0.53282827 0.21209604
2.3930838 1.7284026 1.1862452
2.425931 -0.88074893 1.1811221
2.3597298 -0.95309913 0.73846608
2.2889364 -0.72167164 0.82050598
2.3140199 -0.76616096 0.71934468
0.96396834 0.68505061 0.042311177
2.3603473 -0.84580743 1.0800008
2.3006454 -0.62654573 0.73259032
0.94763607 -0.46667498 -0.018309971
1.3158883 -0.72347224 0.15966193
2.4426236 1.537099 1.1967744
0.48092306 -0.020743037 -0.0049062949
2.3046074 -0.7078985 0.86828095
2.3316076 -0.76853693 0.92442727
1.2134372 -0.25664538 -0.024537269
2.3034506 -0.49866036 0.090105213
2.3228223 -0.79665864 0.76649141
2.4325917 -1.1674443 1.1094052
1.2260714 0.31437439 -0.035646494
2.375067 -1.0216323 1.0268736
1.2736851 -0.74230313 0.70196831
0.42132622 0.33941641 -0.0043894686
1.3198291 -0.73293644 0.52488464
1.0369059 0.50060701 -0.032177497
0.39735776 0.46018901 -0.008072298
1.6109453 -1.1382459 0.62258792
2.3809011 -1.0364509 0.11000145
0.50155437 0.90086758 -0.011910743
2.4271278 -1.2762851 0.29016933
0.7357921 0.93420672 -0.014920465
2.3741894 -1.0015974 0.6543085
2.5672326 1.3610749 1.1794618
1.2850411 -0.76622707 0.70892054
2.3853359 -1.0151041 0.9572311
2.3650048 -0.74958724 0.59804672
0.52138364 0.19081001 -0.0078496821
1.3196357 -0.73014128 0.34574437
0.40078306 0.61125338 -0.0070754583
2.4123621 1.8326757 0.38951263
2.3967912 -1.1637093 0.57651573
0.60049766 0.16987275 -0.0087838359
2.4001939 -1.0363941 1.0606563
0.92921329 0.7352199 0.10597652
0.59257078 0.19149674 -0.0079814671
1.0042785 0.68538296 0.069453701
0.70909518 -0.41975254 -0.0041604801
2.283603 -0.66775167 0.97232479
1.1375515 -0.11529453 -0.031642206
0.69748586 -0.05132867 -0.010360332
0.29847747 0.27053064 0.0026848637
1.2754617 -0.70976752 0.69817168
0.58502573 -0.49603668 0.05001165
2.3758016 -0.895105 1.0406908
1.1990808 -0.73464042 0.69033104
0.46077183 -0.10911312 -0.0016590105
2.29896 -0.67877519 0.5014962
1.6703905 -1.1733251 0.72580552
0.5753696 -0.18002336 -0.0044477312
1.623278 -1.1196026 0.60610765
2.34693 -0.50618076 1.0329719
2.396637 -1.1655519 0.59923548
1.4248031 -0.9140321 0.71226245
0.77533817 -0.54700536 -0.0047009955
0.76851016 0.095890962 -0.012686063
0.33952302 -0.17195362 0.0048586931
0.33329749 0.46482685 -0.0023142325
1.2204964 -0.86548001 0.69001907
0.37707457 0.40707034 -0.0027971966
2.4181249 -1.2392859 0.6759544
2.3153729 -0.79010993 0.72070515
0.73640573 0.15411447 -0.014044215
2.3007193 -0.56353062 1.0189273
1.5748752 -1.0833648 0.57723254
0.43349457 0.45405549 -0.0054205414
2.463414 -1.0629255 1.2387476
1.4052774 -0.92161727 0.70788175
0.36847222 0.0406259 0.00010135688
2.2896624 -0.57762313 0.7072084
0.53376448 -0.0018213097 -0.0053364281
0.45903045 -0.29144287 0.00019581987
2.2589915 -0.66591656 1.0094163
0.92240894 0.75989896 0.054193791
1.3184891 -0.7469672 0.51273966
2.5018582 1.5516127 1.3346375
1.3007308 -0.76595885 0.67182529
0.97635305 0.85812217 0.21076187
0.71610969 -0.31703302 -0.0070892768
2.2851019 -0.53898275 0.7907064
2.3094542 -0.75641775 0.61058116
2.4087756 -1.2373387 0.19932958
0.41823789 0.39091992 -0.0069546904
1.1222857 0.69259197 0.11539
2.337621 -0.78511548 1.0438187
1.1633605 -0.79681325 0.68845564
1.3384598 -0.83138299 0.72050542
0.83618242 0.19880533 -0.010636655
2.4769776 1.3064777 1.008208
1.6692678 -1.1555984 0.75903559
2.3538988 -0.99856293 0.17494689
1.1828502 0.6888746 0.051427346
0.30896664 0.24016485 0.0010611832
1.2680818 -0.73853642 -0.0079743508
0.68351656 -0.41031688 -0.0044191354
0.85978645 -0.49795675 -0.010730838
2.3709962 -0.92251658 1.0655102
2.3345037 -0.80630666 0.5308913
2.2692754 -0.49887025 0.8720234
2.3333826 -0.75641781 1.0169283
0.51274431 0.050925143 -0.0048268195
2.4011068 -0.9604938 1.0788307
2.1277506 1.3736686 0.76178539
2.4621639 -1.3010377 0.45302436
2.4205008 -1.162276 0.3542127
2.4070709 -0.9894672 1.0833691
2.4002309 -1.0695831 0.70806277
1.3167272 -0.74944061 0.63295454
2.5306888 1.3150631 1.218009
0.92592168 0.43715593 -0.017019335
0.46662378 0.10937319 -0.0060705612
2.3427484 -0.88868946 0.64328837
2.2914758 -0.64766872 0.13185477
0.47487944 0.60517049 -0.0089468993
2.3784599 -1.0098133 0.7230317
1.3333681 0.10687553 -0.036618318
1.3530579 0.035171866 -0.038731389
2.3375509 -0.57219756 1.225011
1.0634882 0.70814854 0.29684371
2.3168142 -0.82042396 0.46563205
0.90419018 0.92462069 0.059408978
0.4500359 0.19993471 -0.0041697901
2.4093628 -1.0959995 0.66555077
2.3370218 -0.83217591 0.55350941
2.3260288 -0.70207995 0.74108303
2.4451585 -1.2584921 0.72897732
2.3727715 -0.83707327 0.98774058
2.2811699 -0.55214471 0.68349528
0.80773675 0.59142596 -0.02353715
1.2308261 -1.002593 0.50962108
0.67884445 -0.42581162 -0.0044025118
0.66511875 0.2177958 -0.012257368
0.99687958 0.68948388 0.25987372
0.78055573 0.90163869 -0.018719727
2.3940375 -1.1350381 0.57464665
1.2759793 -0.84728467 0.70382553
0.39636591 0.6503008 -0.0066638151
1.1876268 -0.24058025 -0.030699069
2.2757888 -0.60341394 0.43541372
2.1091466 1.2253151 0.58665854
2.3014581 -0.75683349 0.65181375
2.4607918 1.6150672 1.2443466
1.2548563 -0.87066323 0.70105505
2.3769317 -0.95470136 1.0947536
2.2672668 -0.61901283 0.1323754
0.92900753 0.72314715 0.075603351
0.30784002 0.52019513 -0.0028078412
1.3019338 -0.89569271 0.69010937
2.3134987 -0.61271888 0.41873038
2.4468787 1.5084721 1.193375
2.3728619 -0.91960776 1.0416641
0.43098751 0.15049708 -0.0021676044
0.92532742 0.7342487 0.065299585
1.1487118 0.69724995 0.042736009
0.41380101 0.058239542 -0.0029138394
2.3211427 -0.67273372 1.1261088
0.89883828 0.91014922 -0.016408615
2.5320749 1.3395069 1.1095743
2.383193 -1.1234745 0.77724916
2.3438969 -0.75387734 0.25645378
2.3367691 -0.74381143 0.90173519
0.47161853 0.35633713 -0.0065945718
2.3016899 -0.56132644 0.99621046
1.6334797 -1.1297376 0.62595582
0.55287653 0.018965255 -0.0075018024
2.3335283 -0.63826412 1.0104063
0.62800336 0.57831711 -0.017529802
1.6966941 -1.1413909 0.72790557
2.2766864 -0.53074419 0.7030912
0.9164452 0.86607409 0.17891856
0.62253946 -0.026627168 -0.006864381
2.3055215 -0.71863896 0.17293386
2.3061106 -0.72931743 0.84749317
0.45346114 0.26223469 -0.0033988159
2.239197 -0.52782303 0.033532668
0.97089559 0.86896759 0.19991097
0.32951874 0.52967751 -0.0046455585
2.4431922 -1.0367035 0.26306501
2.3696535 -0.94418204 1.0426329
2.3816562 -1.0016394 1.0515056
2.4110994 -1.1354765 0.46440223
2.4856358 1.5345347 1.238387
1.295837 -0.76935327 0.69871342
0.51166499 0.060501628 -0.0049249935
2.5143418 1.4639609 0.76800734
2.4418998 -1.1101696 1.0810999
2.3211908 -0.86949694 0.46759391
0.61155945 0.20058717 -0.0083296755
2.2706411 -0.5764302 0.15217334
0.57532352 0.34307611 -0.011468161
2.4200816 -0.97156459 1.2649182
0.51382709 -0.17408398 -0.0047229519
0.49511817 0.50522572 -0.011466579
1.1325139 0.69717872 0.20771341
2.3238904 -0.50562453 0.41803199
2.4293423 -1.190165 1.0854077
2.366611 -0.60841715 1.0916479
0.98973888 0.69340169 -0.014848404
2.3138068 -0.70216405 0.7820015
0.90606874 0.92567009 0.070204295
0.58338785 0.31249046 -0.010409159
2.3389735 -0.89381629 0.17408143
0.47145957 0.39839074 -0.007123732
2.276583 -0.54377693 0.55732644
1.3401792 -0.77700192 0.37557444
2.3585563 -0.94264925 0.87405443
0.47424266 0.38958204 -0.0065952376
0.72411424 -0.25821528 -0.0067834449
2.2599902 -0.5543921 0.37245387
2.3605752 -0.96905935 0.87643099
0.28913882 0.29983816 0.00058062456
0.52862692 -0.22919057 -0.0023773063
0.50644088 -0.0022287581 -0.0054691513
2.2789609 -0.62423235 0.37498426
2.4036305 -1.1731659 0.6463061
2.5597291 1.6163305 0.79064268
0.64191175 -0.17297222 -0.0074030869
2.3192642 -0.82374328 0.81136096
0.62051541 1.124722 -0.008142571
2.3619089 -1.0216205 0.88065374
0.92105258 0.81094503 0.14687833
0.66161835 -0.54100418 0.018671447
1.2849224 -0.73849523 0.24550499
0.39620036 -0.26947498 0.0016478093
0.39086515 0.3570511 -0.0027521085
2.2754793 -0.52906406 0.68171304
2.4151118 -1.1103226 0.46379685
2.3260441 -0.99525857 0.49389118
2.3830998 -1.0843976 0.89105767
0.46231028 0.59080201 -0.010604139
2.314224 -0.83685809 0.2153724
2.4230218 1.4410722 0.77564323
2.3773348 -1.0475237 0.56805634
2.281431 -0.59605402 0.68478525
1.023572 0.54055852 -0.032155413
0.90327007 0.90239954 0.13641959
2.3843229 -1.1122308 0.89366871
0.91300517 0.8538956 0.050876953
0.42942479 -0.30990714 0.00066990423
0.92793649 0.83118713 0.1677198
1.0636377 0.68396682 0.085811138
2.4107885 -1.267691 0.91438204
0.56301272 -0.3591339 -0.000761654
1.3076146 -1.0446566 0.40343344
0.58564472 0.16869776 -0.010045373
0.99518418 0.67155677 -0.02508107
0.33215958 0.42173061 -0.0028019613
2.375031 -1.1133428 0.066968247
1.153821 -0.75610203 0.67897266
2.3531697 -0.98573428 0.56190193
2.4872787 1.2855153 1.0621156
1.6756668 -1.15192 0.72432423
2.3791845 -1.236751 0.5555799
1.6813196 -1.2066462 0.7325843
0.43822768 -0.3692911 0.0074108192
2.4467738 -1.2974983 0.52087671
0.58369231 0.59039068 -0.016754363
1.6807842 -1.2323552 0.73580128
2.384192 -1.0099945 0.70152658
1.8182669 -1.0924764 0.73224396
2.2879035 -0.56343973 0.81385529
0.42927113 0.61262161 -0.0069456212
0.3115761 0.46993813 -0.0028751516
1.8369284 -1.1044174 0.58970022
0.92412442 0.81662631 0.083318137
2.0482714 1.1624217 0.38445106
2.2961307 -0.63761657 0.58349425
0.87641215 -0.042209163 -0.01298671
0.50764519 -0.040363457 -0.0051600118
2.3964727 -0.7370525 1.1096774
0.49728331 0.53531206 -0.010017963
2.3102686 -0.66400862 0.58653599
2.2698672 -0.66839218 0.4565531
1.0852865 0.85558593 0.19883452
0.50329429 0.42747113 -0.0083982768
0.37957528 -0.2803506 0.0018874767
0.36527717 0.34847584 -0.0027090446
2.3092468 -0.65894246 0.8229996
0.92313331 0.85784763 0.14655596
2.2866218 -0.73527038 0.17326732
2.2915852 -0.74568635 0.82237095
2.3374565 -0.96964926 0.026309166
2.3088846 -0.67070103 0.69290662
2.2565014 -0.50915951 0.1321373
1.2441751 0.30699849 -0.026827553
0.96812147 0.68241036 0.22756526
0.63696325 0.61860865 -0.016435076
1.3243245 -0.76181453 0.47587132
2.2852347 -0.5000037 0.49603102
0.40712234 0.12898731 -0.002071193
2.2958121 -0.77045316 0.82473475
0.61092669 0.22881567 -0.010457672
1.3427882 -0.77390277 0.60115373
